NCOLS 763
NROWS 31
XLLCORNER -85.9166666667
YLLCORNER 34.775
CELLSIZE 0.00833333333333333 
NODATA_value -32768 
211 260 435 519 517 433 388 449 525 537 536 516 485 516 488 494 527 558 555 519 471 513 442 374 448 432 253 187 184 184 185 201 209 186 185 186 188 214 259 232 219 195 196 205 202 205 291 346 429 502 484 525 362 206 248 309 269 208 304 461 402 285 364 364 284 220 207 218 200 210 216 203 204 203 202 205 208 210 238 278 248 248 219 206 203 204 206 219 226 217 231 223 227 229 238 283 310 289 290 267 275 348 319 275 283 290 253 282 291 274 280 294 283 279 312 328 292 309 268 303 283 259 274 252 256 253 251 244 246 261 274 258 258 258 260 250 251 245 242 248 267 259 254 278 296 258 286 357 340 353 371 392 402 416 384 408 449 405 427 480 492 519 599 612 561 571 641 809 775 797 640 730 590 523 493 459 460 458 465 475 479 475 492 509 510 495 503 507 520 538 581 584 661 778 761 716 691 641 686 738 660 610 586 577 558 556 592 686 658 603 564 552 541 530 510 503 493 516 520 555 513 515 538 553 557 536 516 556 568 550 546 540 528 506 521 516 535 548 559 614 640 629 675 629 634 653 684 622 597 578 572 573 573 566 566 565 594 599 595 592 600 607 627 642 623 661 664 686 709 662 654 650 706 753 781 857 962 1066 1155 1242 1396 1400 1253 1121 1254 1498 1492 1362 1209 1198 1299 1319 1334 1284 1396 1260 1137 980 1068 1100 878 900 737 675 660 742 793 725 920 926 1067 1113 1120 1133 1196 1188 1179 1098 1055 1133 1070 973 956 975 994 1031 1033 1018 1045 919 878 992 948 885 857 941 896 982 888 875 899 971 959 1010 1033 1038 965 911 714 699 687 567 537 500 593 542 547 529 431 357 345 414 445 485 511 633 663 631 615 589 521 482 514 570 603 638 672 738 700 689 819 804 710 557 453 392 373 375 393 364 371 358 328 315 349 352 349 359 344 327 330 320 326 318 313 301 316 329 325 320 316 303 310 314 325 336 352 364 369 349 340 342 343 352 339 334 329 327 320 311 294 284 284 305 302 293 290 289 291 296 308 303 291 273 271 291 281 286 279 281 282 303 300 284 297 297 293 288 287 275 269 275 269 267 267 269 264 259 261 257 261 267 267 271 263 258 258 260 274 273 266 266 269 265 257 250 241 223 214 236 244 260 265 264 252 239 235 235 227 218 214 222 211 187 195 205 189 189 196 205 214 223 243 240 223 221 225 211 213 224 223 220 219 218 208 195 186 206 193 176 162 152 183 185 192 207 206 204 206 207 205 215 210 202 174 186 199 181 177 200 204 199 202 220 222 233 234 224 223 234 230 224 221 226 230 224 228 235 239 229 230 227 217 216 216 207 198 193 197 182 186 190 179 179 176 178 196 191 183 185 184 184 197 208 208 197 190 189 179 177 187 178 172 188 190 187 187 196 200 205 199 197 185 182 185 189 198 203 214 214 219 213 211 204 192 192 203 196 190 195 193 192 192 195 203 207 197 192 195 192 187 180 173 171 178 177 175 174 168 163 158 157 160 149 163 159 160 163 156 161 166 160 162 166 157 148 145 152 158 166 166 163 160 147 142 139 141 142 141 137 133 131 118 115 121 126 126 117 104 98 91 81 80 81 82 90 82 79 88 96 89 84 81 76 83 93 98 101 90 85 91 98 90 86 102 101 112 122 109 92 80 80 65 62 65 82 106 105 101 99 89 87 93 105 94 115 117 110 114 128 129 123 117 106 97 97 109 108 98 100 113 123 112 98 96 98 111 121 123 122 127 133 135
200 291 469 458 415 332 412 512 535 533 507 407 373 450 398 457 439 467 517 502 442 491 509 340 274 288 208 184 193 196 204 224 244 188 186 195 205 247 231 213 232 194 194 195 194 208 345 442 448 409 507 554 462 281 227 232 248 270 393 517 361 231 228 247 243 210 212 219 303 254 199 202 202 202 201 201 203 220 281 262 241 230 210 206 200 206 210 228 221 227 225 219 222 229 234 285 297 293 275 251 296 349 329 301 295 275 257 279 285 273 299 292 290 291 322 318 285 285 273 294 274 279 250 252 251 248 244 247 253 275 258 247 253 251 264 254 247 241 242 253 259 248 249 295 270 256 294 318 315 348 377 399 420 413 410 437 468 398 473 497 490 510 638 666 619 736 799 974 910 739 737 713 545 532 491 471 469 466 491 466 463 484 505 493 488 502 511 516 534 544 560 603 658 652 617 709 640 616 673 658 639 598 576 598 602 614 589 601 573 550 560 582 537 512 495 503 514 530 536 525 535 592 600 582 566 544 516 544 537 528 518 516 521 564 596 554 523 532 571 596 589 611 665 680 659 622 622 610 595 600 625 632 619 582 582 574 590 586 590 591 595 596 599 602 624 616 635 626 627 635 667 669 683 696 747 859 929 968 1081 1259 1387 1250 1176 998 1171 1408 1461 1455 1296 1212 1256 1329 1383 1162 1206 1332 1173 1079 1098 1031 860 795 725 689 666 736 859 779 842 945 1032 1128 1113 1132 1176 1105 977 938 899 912 868 875 884 858 852 877 876 901 956 911 862 966 972 913 835 901 856 872 858 903 988 1060 957 945 932 903 868 762 721 657 618 583 419 501 508 548 556 529 459 346 384 475 564 659 708 679 635 562 575 544 464 469 584 663 604 622 732 728 620 585 651 526 491 481 395 373 348 362 380 368 345 344 315 328 336 350 359 335 308 320 318 301 291 291 286 296 329 342 319 307 301 307 324 326 338 344 364 374 358 356 336 344 361 350 338 331 318 315 320 309 300 286 282 297 305 311 300 293 284 299 291 297 291 283 275 278 273 278 279 268 276 289 289 284 293 285 289 275 277 280 278 276 264 265 262 262 258 257 253 256 252 249 253 262 260 255 254 265 273 269 264 258 256 262 253 249 240 227 211 220 240 246 252 264 259 250 245 237 227 221 210 210 202 187 180 199 181 187 194 212 218 237 237 231 229 209 208 202 216 207 215 209 208 206 208 200 203 211 198 192 178 147 177 176 194 200 214 207 186 186 196 210 201 181 186 197 187 165 189 200 195 183 200 211 224 224 222 215 225 238 236 227 218 211 221 213 226 230 236 226 222 219 219 207 204 198 198 203 206 197 191 183 178 181 189 179 178 177 178 164 167 191 209 200 203 201 197 185 184 176 169 165 177 182 182 191 198 201 203 199 187 184 179 183 195 198 207 214 218 212 211 204 202 202 190 187 198 191 183 191 193 186 194 195 201 205 201 198 193 194 189 183 178 177 170 171 170 164 161 161 165 167 162 152 163 159 161 169 165 166 167 169 164 164 158 153 155 157 162 168 162 157 156 152 143 136 133 131 136 132 122 117 109 120 118 119 122 113 103 101 97 77 75 85 93 93 86 73 84 91 92 86 82 88 88 93 102 101 90 87 99 104 90 102 119 131 146 132 99 88 77 74 57 68 75 80 89 90 94 84 76 64 74 82 99 106 103 108 122 125 112 114 120 111 95 96 103 96 104 109 106 100 97 95 108 118 115 114 117 105 113 122 133
208 240 331 311 280 376 534 543 531 539 524 460 363 299 433 490 365 381 514 495 403 337 469 360 218 192 184 186 205 225 226 228 215 185 190 194 208 216 203 210 204 202 264 280 212 237 258 392 341 435 522 482 511 482 438 461 495 505 546 546 417 261 231 216 216 205 221 340 508 388 225 205 203 200 203 202 208 268 290 255 242 217 212 208 206 206 212 220 211 242 215 216 221 224 232 285 278 285 254 244 319 344 320 316 288 265 269 290 284 282 301 297 290 304 320 292 303 262 286 284 263 276 244 252 242 242 239 246 262 276 253 244 244 248 254 249 250 239 243 249 242 238 246 266 254 276 304 288 319 345 374 406 414 430 437 480 394 432 472 465 469 507 599 769 776 861 1025 998 894 887 808 672 553 509 502 489 502 471 491 490 458 483 480 476 491 489 507 519 536 540 577 675 599 575 578 660 632 611 597 643 600 639 642 645 598 582 568 544 545 534 542 520 497 493 514 516 506 509 511 528 562 597 594 603 620 594 610 611 584 555 549 591 654 710 597 550 538 532 532 560 575 583 620 611 604 580 588 618 699 677 641 604 591 588 592 586 592 594 638 588 590 628 616 657 666 638 751 661 669 643 660 742 739 712 728 771 820 912 1040 1191 1328 1233 1046 945 1106 1223 1295 1399 1305 1297 1311 1393 1375 1130 977 1108 1010 926 980 1018 889 850 708 660 674 698 829 868 793 859 1002 1074 1098 1105 1161 1158 1006 881 826 811 819 839 852 809 813 812 863 908 873 845 814 865 937 899 826 812 784 845 854 851 908 996 954 897 914 785 759 702 699 627 542 495 376 467 542 616 455 371 374 358 344 367 566 686 611 593 583 542 487 430 371 379 533 585 583 683 608 576 504 540 513 416 402 389 372 374 376 350 344 375 366 318 311 331 330 317 328 300 285 292 297 288 292 311 299 319 351 335 320 313 318 328 325 335 348 348 358 361 360 347 328 336 337 336 337 325 316 303 299 299 296 291 280 283 298 309 300 290 279 287 275 275 283 283 279 269 274 290 293 283 271 268 278 280 271 271 266 270 263 275 283 285 275 270 263 265 267 268 256 253 260 260 248 244 249 253 246 255 261 258 259 259 245 241 239 253 254 242 222 214 231 233 255 254 240 232 233 234 224 213 201 187 188 195 186 177 177 198 202 210 224 240 248 230 220 211 196 192 202 194 211 205 195 196 197 196 181 189 191 183 173 150 154 171 192 186 200 189 178 192 207 215 196 175 174 180 184 167 189 186 185 191 200 209 224 216 211 224 236 239 237 233 226 208 205 208 217 225 232 231 224 219 209 206 201 199 204 213 213 205 202 198 192 191 198 192 192 188 190 170 163 191 207 195 194 194 197 195 190 186 177 163 168 169 180 190 201 204 199 189 181 180 183 189 195 206 214 216 215 205 199 200 193 193 186 189 195 184 183 193 186 187 195 201 203 201 201 197 195 191 189 181 183 183 168 167 172 173 172 171 174 170 157 151 166 164 157 166 175 174 170 167 166 164 154 154 162 164 164 165 159 156 152 151 146 138 138 132 125 123 127 124 123 117 108 115 103 98 86 88 95 83 79 86 95 89 79 86 90 83 91 91 92 99 99 100 108 106 99 88 102 100 102 117 137 138 122 99 101 93 67 62 61 84 114 134 107 93 87 65 63 75 88 115 120 131 124 121 116 108 116 105 106 107 93 84 87 93 105 104 91 86 87 96 104 110 106 97 96 101 112 117 130
291 198 201 224 297 452 547 544 500 428 491 391 345 290 465 518 424 312 464 415 347 265 335 334 214 186 184 191 215 224 225 211 192 188 206 191 195 194 196 194 194 236 397 382 298 335 283 279 256 425 457 404 450 461 481 463 533 585 592 574 522 349 245 232 205 211 304 496 627 419 248 224 206 202 202 205 217 286 268 253 231 216 210 208 206 206 203 226 214 226 210 215 219 225 238 272 284 259 237 257 343 331 290 283 296 265 289 285 279 288 293 291 287 318 309 294 290 259 303 281 272 253 251 249 240 244 243 251 276 267 251 245 246 242 246 244 253 237 244 244 236 239 249 252 257 254 278 276 329 360 385 427 400 409 440 395 386 437 448 449 493 563 642 834 967 1055 1155 1116 1066 895 751 617 577 509 529 510 509 480 494 495 464 464 472 490 475 487 496 505 515 531 569 598 566 555 568 658 642 585 574 569 602 622 681 706 641 583 549 555 556 542 524 503 501 501 513 507 502 507 513 532 533 540 559 619 681 687 708 685 654 663 638 728 719 636 596 566 561 550 532 522 536 564 583 574 560 573 681 717 709 659 618 620 625 600 593 593 603 603 599 604 655 706 665 815 754 659 726 726 793 688 700 708 766 846 890 792 820 919 1080 1286 1262 1088 1022 890 968 1097 1239 1418 1333 1350 1366 1458 1313 1103 933 868 922 829 911 897 881 856 755 671 661 807 880 829 863 999 1062 1129 1096 1087 1128 1193 1089 982 922 815 790 785 819 809 785 814 816 840 831 791 802 925 958 943 894 866 780 782 810 839 874 873 914 880 895 765 707 657 616 575 460 382 351 438 608 569 430 343 349 346 377 467 561 538 507 570 518 490 509 466 335 370 432 457 445 481 452 436 396 401 369 346 341 339 343 341 323 328 319 324 310 302 306 309 304 306 310 302 318 318 307 326 323 329 303 299 317 321 296 308 315 331 339 334 343 340 361 366 335 329 329 314 308 307 320 315 308 304 289 289 286 289 287 278 287 298 298 291 283 280 295 283 270 280 288 277 272 283 286 288 285 273 273 280 272 265 263 262 263 271 282 283 274 269 276 273 269 269 265 266 268 267 256 251 244 244 240 238 254 246 259 263 249 237 230 244 240 229 216 210 212 232 246 243 240 234 220 210 203 208 202 204 207 184 185 168 171 187 205 203 230 238 243 233 228 216 203 190 186 191 197 213 202 194 180 177 170 168 178 190 171 151 154 173 171 177 176 170 179 191 213 211 196 180 160 180 180 165 189 185 188 208 216 221 226 210 206 220 228 225 234 233 218 213 214 205 205 215 221 229 227 221 213 204 209 211 213 213 208 197 194 196 194 189 184 180 187 196 185 171 169 192 196 187 182 190 194 200 197 193 181 167 168 182 179 187 198 201 194 188 190 195 192 196 204 210 211 207 206 195 191 196 187 185 177 189 193 181 182 187 185 193 191 197 203 198 197 193 196 192 186 186 186 184 178 174 181 178 173 163 162 162 152 155 168 168 159 168 176 178 170 164 158 158 158 164 168 169 165 159 161 155 154 147 146 139 128 122 125 131 127 118 114 106 94 94 84 76 74 89 94 81 86 93 96 88 82 86 94 86 92 98 101 106 104 118 122 110 100 90 103 102 112 127 149 135 113 85 79 97 75 58 61 72 90 118 126 122 75 58 69 72 84 112 119 125 128 113 101 98 103 105 94 105 93 83 101 101 94 90 87 91 98 101 106 96 108 109 101 105 112 126 134
419 231 197 259 272 361 458 528 523 404 325 316 236 299 468 428 410 269 362 429 280 212 203 193 188 187 184 197 216 230 211 195 196 222 229 209 198 194 210 265 276 258 328 448 450 374 414 428 292 379 399 326 366 385 406 480 523 562 514 439 465 344 235 213 215 252 439 599 571 377 234 243 205 201 201 205 242 282 247 239 225 214 210 209 209 210 205 223 231 210 211 221 225 244 270 281 276 243 235 254 313 311 269 290 305 276 291 284 274 290 292 283 291 313 292 304 270 276 299 271 272 245 242 245 241 249 255 273 285 260 246 249 243 236 240 269 243 235 234 237 249 251 271 262 274 295 322 321 307 346 378 358 350 365 380 378 448 478 486 462 508 570 679 724 816 994 1156 1148 986 862 727 614 564 518 530 536 505 499 504 496 496 481 467 468 459 483 503 525 537 542 554 553 542 549 616 608 638 596 556 539 586 613 631 639 585 564 559 534 529 524 501 519 502 482 499 526 532 529 505 523 545 554 559 566 584 607 658 711 720 745 695 634 611 590 580 567 567 548 546 540 538 533 538 537 574 666 742 680 723 725 656 618 606 607 592 586 591 601 596 602 662 768 714 700 748 742 814 848 900 783 819 703 742 840 1031 963 970 1058 1180 1191 1163 1031 909 835 977 1204 1288 1445 1216 1233 1269 1366 1164 1021 929 758 780 768 868 928 868 828 759 676 664 778 716 728 867 970 1047 1074 1085 1122 1101 1116 980 902 885 895 807 760 777 788 776 813 774 800 768 783 844 911 913 966 970 892 830 735 739 881 893 848 881 866 861 742 645 599 549 498 519 381 343 431 585 463 345 342 384 418 441 396 460 405 407 435 403 410 394 354 308 370 485 454 400 374 360 357 336 337 349 335 327 335 323 318 342 335 344 377 341 302 320 332 320 331 348 325 354 359 342 324 309 308 306 285 311 307 297 314 316 334 345 350 344 345 331 332 319 315 318 319 305 300 302 318 306 311 316 309 296 282 290 289 278 286 290 286 293 297 294 288 272 277 283 281 265 275 284 278 270 270 261 270 271 272 270 261 253 265 272 274 278 276 267 275 278 282 275 266 271 271 262 259 258 251 245 235 232 245 261 258 247 238 233 228 224 218 225 212 223 230 226 223 223 228 230 223 218 224 215 221 214 195 184 170 172 177 191 212 223 226 227 213 214 205 194 191 180 177 188 208 204 197 193 188 183 182 164 182 179 148 152 157 173 167 162 177 183 194 206 191 187 175 162 188 173 173 176 183 205 214 226 226 216 200 212 209 217 214 228 230 224 222 223 214 202 212 215 214 224 224 217 216 217 219 214 218 212 201 201 203 208 200 197 188 176 186 184 168 162 178 186 178 174 190 189 190 200 198 188 180 162 168 177 182 189 195 185 193 207 208 201 207 209 208 201 201 199 196 183 189 187 176 188 191 194 184 182 179 182 191 194 199 207 201 198 197 190 185 180 184 187 187 179 175 172 167 165 157 155 156 155 157 166 172 162 168 173 178 179 170 162 161 162 162 170 167 160 153 152 149 147 146 142 133 125 130 135 129 118 100 94 95 91 79 74 79 97 101 90 79 90 99 95 84 93 91 92 96 93 100 108 124 116 131 118 108 99 98 106 116 133 138 122 111 105 92 72 69 63 59 56 59 69 75 106 106 65 58 71 81 103 96 103 111 122 116 106 95 95 101 93 93 87 93 97 92 84 89 97 104 112 116 115 105 113 123 119 118 128 133 141
364 210 194 220 303 374 401 499 495 371 264 240 209 304 431 338 278 218 246 368 368 226 193 188 197 185 184 200 220 216 203 210 241 231 233 293 290 208 232 383 465 424 473 491 482 433 456 407 324 283 284 304 386 348 356 406 456 429 330 283 286 258 226 216 211 329 558 581 496 305 213 220 205 203 201 210 260 273 257 230 220 216 210 211 213 209 207 230 248 211 212 216 223 267 265 279 262 230 236 302 326 282 261 269 281 284 289 280 270 298 289 276 310 311 289 315 261 285 264 263 253 240 244 237 245 255 257 288 279 255 240 243 236 237 242 273 233 228 232 246 256 262 270 280 293 348 328 346 310 322 377 424 410 316 355 412 443 479 462 476 526 630 634 667 816 959 922 987 856 704 643 580 606 542 542 533 519 526 531 510 517 508 493 476 466 462 470 501 521 532 532 536 544 571 634 582 562 567 545 604 604 597 585 578 555 550 531 535 520 513 521 511 501 528 552 552 527 511 512 517 528 536 544 567 588 580 602 619 670 749 713 661 621 645 589 601 582 541 563 541 558 544 536 566 613 636 626 600 614 635 616 601 594 591 589 586 597 591 594 608 686 695 639 624 643 675 806 940 950 961 884 831 852 969 1053 1244 1131 1082 1086 1052 1064 968 886 825 983 1061 1155 1316 1088 1026 1067 1179 1183 973 858 807 749 762 859 883 830 788 719 679 669 704 664 743 904 955 1002 974 1021 1136 1054 996 901 847 805 848 799 811 759 731 780 769 749 757 737 771 866 842 899 903 834 874 842 723 727 868 881 813 836 844 804 719 602 550 525 467 431 369 360 349 403 383 347 342 344 349 425 384 332 371 396 366 324 318 314 326 368 474 430 374 354 372 395 382 358 363 376 378 360 374 378 380 379 374 358 337 322 317 320 333 352 375 356 351 363 347 327 310 312 310 298 292 314 292 301 337 322 339 345 344 342 327 322 312 313 309 308 311 317 311 304 300 297 310 318 316 305 295 289 285 271 269 266 271 278 288 284 287 277 270 274 280 270 283 295 294 276 270 264 261 262 263 273 261 247 254 268 267 273 267 265 271 281 281 276 274 274 276 270 271 267 264 262 246 228 238 249 253 255 260 253 246 239 241 232 220 205 210 209 210 213 227 238 236 224 219 224 213 217 210 203 191 187 172 188 207 209 218 216 210 197 197 201 188 178 166 187 192 190 197 195 184 175 170 160 180 178 163 142 147 159 157 173 189 203 203 202 187 176 181 162 183 171 161 175 193 226 219 218 218 211 197 212 200 201 219 226 226 228 217 216 213 208 200 209 208 221 222 209 206 208 216 206 210 211 210 207 208 208 198 198 197 185 172 167 175 175 166 163 158 166 183 179 187 192 203 194 185 178 158 166 181 182 193 182 191 197 202 205 205 201 193 199 195 187 190 181 175 176 189 186 186 184 184 180 177 190 189 192 199 206 202 199 196 191 189 190 182 181 178 178 180 178 173 160 164 169 166 155 161 171 173 169 168 170 179 175 168 163 165 169 166 167 160 157 154 149 147 142 136 133 128 130 139 133 118 106 103 107 97 82 80 91 103 99 96 84 90 94 106 96 90 100 104 100 106 111 116 118 133 131 130 123 117 112 111 128 139 146 141 121 98 85 78 105 125 91 75 74 60 51 50 63 61 53 60 78 98 110 113 126 124 115 106 99 88 95 95 89 83 78 84 84 80 79 88 89 98 105 107 112 117 128 132 129 129 133 125 131
235 203 278 347 446 523 470 443 398 419 392 366 258 212 281 291 309 259 196 238 258 203 190 187 185 183 185 216 214 196 209 252 240 296 391 431 436 298 236 249 351 448 473 470 498 481 493 469 443 386 349 412 339 384 282 280 270 264 282 252 234 231 222 211 263 455 585 546 433 247 211 231 209 201 205 229 274 271 250 230 219 213 213 215 214 208 221 251 236 211 212 216 219 261 245 276 254 226 237 327 336 291 298 300 272 279 285 280 273 296 287 276 311 294 293 302 253 269 244 273 247 241 237 243 246 250 277 293 265 242 243 243 237 236 247 242 229 237 241 237 249 259 266 304 361 435 355 360 396 397 400 353 324 347 410 432 444 427 455 447 529 602 596 678 759 722 766 945 896 736 641 618 641 588 612 556 548 543 545 529 518 507 486 487 498 507 484 484 522 518 531 551 580 588 587 579 532 531 586 671 743 593 558 568 551 532 540 556 550 537 516 537 598 619 560 552 559 540 510 508 532 522 532 572 608 651 695 713 776 833 780 736 717 631 631 593 567 555 569 551 578 603 575 553 570 570 568 584 605 648 610 609 601 590 595 593 590 598 600 600 610 607 626 614 669 734 829 992 1105 1132 1100 1108 1060 1120 1166 1113 1023 911 1026 943 1017 948 852 783 987 949 1090 1186 1028 928 1017 1094 1145 1009 848 793 777 723 721 742 731 737 722 686 648 661 707 771 836 965 1028 1002 1058 1123 1064 958 887 849 753 733 773 737 737 708 733 706 730 730 725 758 869 858 807 788 777 728 708 757 803 822 868 884 851 732 718 705 597 570 511 442 408 384 360 351 342 342 342 342 342 342 372 337 331 334 336 346 325 298 418 486 443 413 357 339 349 377 360 381 412 375 425 495 475 456 390 402 410 363 358 340 345 348 367 371 366 376 362 348 336 341 338 325 313 303 293 296 301 302 322 340 332 348 340 333 338 333 330 323 329 324 321 313 310 312 310 318 308 297 299 303 302 296 288 289 282 281 277 271 268 272 266 271 274 271 274 273 268 272 275 281 285 285 276 273 263 248 268 271 264 250 269 266 270 268 256 272 273 276 266 270 267 270 269 270 264 256 251 244 233 227 233 247 255 250 244 249 244 236 226 220 216 202 186 195 211 219 230 223 224 213 207 201 195 194 182 181 187 174 175 199 193 204 208 195 183 180 193 201 190 163 177 175 182 176 184 190 178 162 154 167 178 163 139 144 154 170 184 195 203 201 202 183 163 167 160 175 164 159 177 199 220 212 203 204 194 190 197 199 208 220 228 223 222 220 214 207 207 205 193 208 216 217 214 206 200 205 204 199 204 210 216 216 209 199 190 183 177 169 177 181 180 184 182 172 162 163 176 184 197 199 191 184 172 157 162 174 180 190 182 193 194 201 196 191 193 188 192 191 182 180 171 179 181 179 178 180 178 175 180 183 189 194 192 196 205 203 199 193 198 196 191 186 189 189 186 184 177 171 159 164 173 170 160 160 166 172 174 172 171 177 175 167 169 172 170 168 163 161 159 152 147 139 137 131 126 133 138 132 118 123 125 109 91 85 93 104 106 86 94 94 85 97 107 106 89 87 95 109 110 122 131 137 129 130 126 117 120 115 119 132 135 141 126 112 108 130 117 119 135 129 100 86 89 82 66 56 45 52 87 88 74 92 106 104 112 103 108 99 92 84 93 87 79 81 87 84 94 98 94 86 87 95 96 102 108 123 133 129 128 127 124 108 119
207 330 426 442 475 516 479 416 408 330 382 466 324 212 193 261 325 303 306 232 188 196 189 184 190 183 187 216 193 203 249 240 314 447 493 475 452 431 422 357 247 376 451 451 466 484 477 450 412 332 382 442 320 405 383 262 242 249 276 256 234 225 213 242 430 588 536 504 375 224 209 237 213 207 213 276 283 262 242 221 220 216 217 214 211 209 229 249 221 213 223 236 269 230 218 250 238 229 246 337 343 291 300 294 297 276 279 267 277 288 278 289 304 282 311 279 272 270 247 252 243 241 240 235 251 279 291 297 249 241 241 239 227 234 248 225 231 241 246 248 242 256 272 309 400 436 430 451 466 424 382 346 377 427 457 481 502 530 480 452 492 512 531 591 630 777 894 1013 918 825 678 677 723 712 639 548 553 540 536 535 527 520 498 492 520 527 481 495 492 529 545 549 562 564 545 555 523 538 580 660 632 590 573 552 543 569 580 557 544 534 542 608 610 581 571 572 535 527 510 523 538 555 559 593 612 623 632 653 712 689 665 649 663 665 633 592 555 568 585 583 628 680 590 562 554 560 582 585 624 694 630 609 592 599 592 608 589 594 598 598 593 622 640 632 690 807 1024 1132 968 1024 1071 1064 995 965 1049 895 895 834 1001 932 898 978 871 766 862 892 975 1077 945 917 963 913 1005 949 857 864 843 740 789 726 719 707 673 671 655 651 678 730 927 992 1140 1118 1206 1254 1201 1060 933 834 777 741 714 696 692 683 658 766 770 749 762 838 841 852 808 753 803 689 708 773 858 869 871 851 717 606 650 616 570 526 471 454 483 472 467 374 374 346 342 342 342 342 361 309 289 309 322 307 310 315 376 402 365 347 325 342 408 454 441 480 384 357 395 411 418 471 399 479 417 340 344 372 350 386 371 379 377 354 332 330 325 310 318 310 303 289 300 282 299 306 337 334 320 331 344 329 331 328 336 329 327 324 324 322 312 304 301 299 292 295 291 308 313 309 304 295 292 293 289 295 295 287 291 283 265 267 259 274 273 264 265 280 284 283 279 268 259 257 254 248 259 260 248 263 260 270 255 264 270 266 258 259 258 262 262 273 267 256 243 234 236 233 223 234 246 247 233 229 235 237 236 236 223 200 200 193 195 212 209 220 231 217 202 208 206 207 199 183 178 178 170 189 180 192 192 187 185 174 182 196 191 178 160 159 163 167 181 187 188 168 153 157 169 156 137 168 165 176 182 193 192 188 191 174 162 160 157 160 158 165 166 185 197 199 186 180 184 181 192 211 219 223 224 218 210 215 208 206 199 202 195 205 204 214 213 206 197 197 198 192 201 209 211 209 204 206 198 189 191 182 179 184 186 189 182 186 174 166 176 190 191 188 186 175 169 163 157 164 180 191 179 184 190 194 188 181 180 188 182 182 181 173 175 179 177 172 174 170 167 180 182 182 189 188 186 194 201 200 199 200 200 198 192 192 190 184 180 187 184 177 159 164 176 172 164 167 172 171 173 179 178 179 177 173 173 173 166 163 160 160 158 152 143 139 129 129 137 141 137 115 111 119 100 88 86 97 120 108 93 91 102 100 101 99 114 100 91 99 100 106 115 130 152 135 122 117 118 117 113 105 116 134 144 146 140 124 140 143 139 147 138 129 105 84 71 77 75 61 47 70 104 117 102 91 95 106 109 96 99 91 82 76 77 76 80 85 98 95 97 105 99 106 100 90 99 102 112 120 132 120 124 116 102 113 129
235 406 395 393 517 543 525 502 493 413 315 426 439 311 195 294 446 457 387 261 192 187 184 189 185 182 185 191 193 235 231 297 453 493 479 478 467 454 449 439 287 362 444 419 462 466 443 420 367 313 417 387 357 370 352 270 294 248 232 233 227 217 223 375 585 577 494 425 268 211 212 274 221 208 250 301 272 265 241 222 219 219 220 215 212 207 232 254 215 216 222 272 264 237 245 260 242 231 248 347 348 299 304 275 271 277 273 275 300 287 274 303 291 286 308 271 274 260 254 242 235 235 234 243 263 285 289 277 238 239 239 230 233 237 239 225 231 249 248 256 276 260 275 324 477 497 503 500 439 345 324 434 409 432 459 493 517 552 506 508 541 592 588 555 633 733 868 948 838 740 682 739 777 654 588 552 535 536 524 521 509 502 511 503 505 527 483 487 505 532 532 519 556 558 518 521 556 612 604 598 590 597 566 557 575 574 571 563 556 627 648 609 592 580 572 536 550 554 537 528 559 576 580 575 583 605 628 644 631 618 622 638 702 675 608 576 600 599 632 724 649 693 654 593 574 571 564 585 611 645 700 669 723 731 647 611 596 595 592 596 618 697 836 705 737 841 1090 1113 836 800 870 910 818 860 843 798 787 799 968 931 870 859 821 790 834 926 1013 1020 879 904 829 816 958 1061 992 989 1011 906 955 904 806 711 674 655 651 662 743 833 940 1002 1023 1059 1180 1305 1207 1119 1065 863 886 820 796 768 721 689 611 719 708 722 731 799 793 746 731 758 748 678 760 787 810 840 838 765 565 493 518 570 531 483 469 497 499 525 518 457 442 376 342 350 342 338 329 278 325 316 297 282 328 309 315 342 327 318 382 404 415 436 405 373 367 357 362 356 361 406 396 342 341 325 330 364 368 390 397 371 381 363 327 327 329 317 299 318 317 306 313 312 292 317 335 335 335 323 336 337 318 323 331 342 349 337 338 333 331 322 315 308 307 299 291 297 305 303 312 310 301 306 298 307 304 293 288 276 273 273 259 254 274 276 268 258 264 271 280 283 278 274 264 253 244 243 244 252 256 252 250 265 264 267 261 252 255 260 256 262 259 254 254 246 228 228 222 222 237 233 227 219 236 237 232 229 220 226 221 211 195 188 199 224 229 223 215 213 218 216 208 193 196 194 174 170 172 178 175 184 169 178 188 183 190 180 180 177 164 151 159 165 173 178 167 147 151 139 149 163 178 175 179 196 175 177 182 175 173 156 151 155 166 180 180 186 194 196 171 170 176 192 210 215 214 209 215 223 214 202 201 199 196 196 193 191 200 209 208 206 199 193 191 188 205 208 204 199 201 207 205 202 194 182 186 192 192 197 183 180 160 161 176 182 185 175 181 185 179 165 157 160 176 189 176 178 185 185 182 180 185 191 184 174 178 169 173 172 169 168 173 169 182 176 178 173 178 186 190 195 202 198 194 194 195 194 189 192 194 186 174 180 172 164 159 169 178 176 171 171 174 178 174 174 181 177 171 168 168 167 162 156 149 154 150 139 139 133 132 133 143 143 132 120 99 99 85 91 108 113 120 102 95 94 106 105 107 111 110 105 102 96 111 116 131 147 148 153 120 107 108 112 114 103 114 119 139 146 137 138 140 142 147 147 138 132 100 88 79 67 65 48 56 91 114 111 119 101 101 101 108 94 89 89 70 80 85 90 89 88 95 111 108 115 107 110 106 97 89 89 92 108 125 115 114 114 100 109 115
227 334 282 434 521 471 513 524 512 453 288 312 364 245 188 248 381 388 305 217 206 200 204 204 197 188 182 186 225 224 265 420 502 485 469 460 445 421 388 401 322 293 351 411 455 459 457 451 413 373 439 362 264 256 267 299 265 227 213 237 228 223 371 550 578 524 429 282 220 206 234 272 219 223 283 287 270 265 244 224 219 228 229 215 210 212 256 245 214 226 239 278 257 272 249 250 236 233 254 343 318 300 274 279 264 267 276 280 298 278 289 296 274 302 306 273 273 254 256 245 251 235 237 263 267 274 287 257 239 237 233 231 239 224 222 225 234 247 251 266 303 268 295 330 426 435 468 422 377 387 391 454 465 481 487 495 524 546 544 538 591 616 680 607 615 751 876 911 786 717 765 739 644 639 551 555 532 523 514 512 512 508 520 531 518 539 512 487 497 497 493 524 537 513 501 538 577 633 572 561 581 565 574 563 552 549 618 641 648 636 608 596 581 564 550 560 582 567 540 539 553 559 564 572 611 622 601 595 590 601 625 651 660 673 636 648 710 672 707 782 734 769 724 608 592 584 575 559 567 620 732 838 901 808 691 630 593 603 593 624 699 794 886 774 841 855 940 930 787 704 792 841 810 728 695 706 728 811 940 944 923 830 828 759 866 927 908 864 866 820 773 794 862 941 981 943 1020 1055 922 819 708 679 670 658 661 709 813 852 886 965 1003 1102 1153 1082 1060 991 971 886 894 813 800 763 725 637 583 619 654 698 701 686 644 666 716 800 696 656 691 771 765 768 759 731 593 475 467 463 402 445 413 386 419 485 463 426 392 360 346 361 339 298 256 268 308 280 261 296 319 299 312 335 306 394 368 385 424 397 361 371 368 333 356 357 383 357 360 322 315 317 335 358 360 386 407 413 393 358 340 350 342 326 322 324 309 308 303 295 289 290 315 318 332 314 327 337 328 317 328 337 358 370 370 395 366 342 335 331 315 313 305 288 290 299 303 311 315 317 317 321 321 315 291 292 278 274 271 265 257 249 256 265 269 258 275 272 276 276 273 262 259 248 249 237 249 248 245 254 250 260 261 261 254 247 244 250 247 247 248 242 240 244 241 228 219 215 214 216 225 227 232 232 224 224 211 205 202 188 197 226 223 223 223 213 214 224 216 206 212 207 191 175 161 163 161 163 162 172 168 178 172 171 177 188 176 155 147 146 152 169 172 165 148 142 173 173 174 163 182 188 168 167 190 178 161 152 151 163 172 179 192 197 191 172 161 174 201 206 203 198 195 212 221 226 215 206 209 208 201 192 188 191 202 207 200 198 206 205 197 188 197 202 200 191 194 199 205 199 192 193 196 198 192 192 182 177 163 161 157 157 164 167 162 175 180 176 167 160 176 188 189 175 175 175 176 182 186 179 178 170 164 160 165 174 184 184 188 174 181 188 198 185 180 187 191 200 200 196 188 187 187 186 182 189 186 183 167 172 170 174 166 172 178 180 176 178 175 179 180 176 182 176 171 165 162 160 157 152 148 146 141 143 144 141 133 137 143 138 121 106 90 85 96 107 117 110 113 108 107 111 102 110 106 117 115 108 103 96 103 121 141 136 135 138 129 132 125 107 109 105 109 130 135 125 113 116 133 136 133 129 121 110 108 109 98 79 54 46 87 105 90 103 119 107 99 92 94 96 80 79 75 86 95 100 103 100 102 106 103 109 101 112 119 98 105 109 107 103 116 116 103 98 108 118 121
220 303 242 379 372 400 493 512 443 385 375 284 258 227 198 203 242 226 214 203 198 203 214 206 203 186 182 186 212 237 406 487 499 500 489 470 462 454 441 385 386 418 333 415 448 447 458 469 424 360 355 329 251 254 297 262 229 222 221 238 213 318 520 571 539 443 301 236 213 210 249 248 220 256 284 274 268 264 237 226 223 233 223 210 209 218 266 229 216 227 262 272 264 292 260 244 227 235 280 337 288 273 317 279 276 263 280 287 277 266 299 279 272 295 267 274 262 258 243 239 239 231 242 259 271 262 273 244 234 232 227 234 226 222 229 239 238 246 261 273 298 273 286 329 349 387 437 448 438 473 480 439 471 511 505 519 537 568 619 614 732 679 824 696 623 755 868 855 754 724 728 627 564 582 562 542 543 523 511 521 528 519 535 550 551 537 525 537 526 492 503 514 515 498 542 541 566 560 559 544 551 559 538 526 543 591 686 645 640 618 592 589 593 609 623 606 584 563 550 541 543 564 566 582 591 580 567 565 582 595 597 629 631 647 749 781 832 826 863 917 941 819 661 607 640 625 613 562 579 676 803 890 848 686 625 632 603 627 588 608 685 682 685 696 708 714 868 871 749 678 709 868 737 688 712 793 837 880 940 945 942 938 894 785 810 859 808 789 812 748 682 774 811 846 954 875 953 909 840 797 671 675 666 665 671 706 847 939 936 967 999 1041 1040 951 862 948 879 838 818 806 783 760 684 687 649 583 549 573 587 607 682 685 646 742 656 653 650 702 710 716 624 544 492 462 434 394 363 386 366 343 379 401 376 424 365 341 326 318 297 265 265 294 281 258 283 296 305 326 370 322 313 401 440 442 377 363 402 347 337 338 360 363 335 337 333 317 304 321 384 351 363 399 409 404 377 345 344 340 327 324 313 309 303 316 312 288 294 287 325 312 313 318 335 325 315 327 334 343 398 454 493 494 465 421 372 346 324 312 308 301 295 288 298 317 308 311 324 331 335 330 310 306 299 296 289 279 265 250 257 254 257 263 254 256 260 269 264 272 260 250 251 242 230 238 241 239 258 252 257 266 253 255 243 237 231 235 234 231 244 236 241 233 230 222 229 214 207 210 217 213 205 204 212 220 199 186 195 218 214 219 209 193 205 221 218 214 213 197 188 190 180 178 166 164 159 158 158 153 161 167 182 180 170 170 173 163 149 146 156 167 154 142 152 158 163 167 170 170 167 179 176 171 153 142 151 167 183 189 195 190 173 164 170 198 212 205 179 186 205 210 215 222 220 214 213 212 210 197 178 189 199 208 197 193 203 207 199 186 186 192 196 187 192 198 201 200 204 204 200 196 181 173 169 166 169 173 167 169 168 167 161 157 157 158 160 155 175 183 190 186 171 166 171 178 179 173 166 162 163 171 168 178 190 194 195 195 186 189 190 191 191 187 196 201 200 191 185 187 190 189 185 184 180 173 170 178 179 174 163 169 173 181 179 185 185 182 181 184 183 175 172 165 156 155 152 153 151 149 147 149 141 135 132 139 141 135 114 95 83 91 113 118 101 103 108 116 123 111 101 114 122 129 127 115 113 107 117 129 135 132 123 133 142 144 132 136 117 96 107 119 120 110 94 119 138 143 132 126 123 117 90 93 89 72 58 49 66 75 94 112 114 97 85 88 83 83 68 75 88 90 92 88 88 91 91 89 90 97 97 106 115 105 99 107 118 122 125 118 107 97 104 122 114
219 297 219 235 279 428 388 494 427 291 365 443 390 248 210 191 198 196 194 194 205 219 218 208 192 191 184 183 206 339 465 468 471 477 489 484 471 470 457 451 448 444 380 382 422 444 454 447 392 314 254 234 251 293 272 232 224 262 243 218 267 403 535 517 505 394 297 228 214 230 256 238 242 293 283 277 273 260 237 236 236 234 216 210 212 229 265 228 220 230 279 285 284 271 265 237 230 236 306 298 270 285 327 265 278 259 262 296 277 270 282 271 276 277 257 264 251 268 240 238 232 238 250 260 272 264 268 243 233 226 220 223 221 224 247 245 245 249 263 298 276 280 305 344 339 392 419 483 479 478 507 487 433 477 510 531 546 567 656 812 866 708 874 731 648 760 881 816 772 751 688 640 590 564 552 538 530 523 519 527 540 543 540 558 565 571 543 506 494 513 521 486 489 515 528 529 539 546 534 539 543 519 541 557 585 630 639 626 611 645 660 650 640 619 584 573 551 552 554 539 539 546 555 590 588 559 551 555 563 579 587 595 599 624 665 720 877 877 918 957 915 772 660 631 616 600 591 562 582 609 639 706 814 700 632 680 641 639 601 593 597 597 631 660 674 674 780 776 694 678 704 737 666 659 742 788 884 1030 1016 949 842 923 843 794 713 781 855 743 742 700 653 703 740 757 800 888 771 711 679 667 672 684 694 665 739 847 937 1078 1063 1000 1018 953 813 835 817 824 877 740 747 711 733 720 695 681 692 625 542 531 556 604 703 593 642 738 592 597 623 677 697 685 532 402 417 429 372 361 350 359 347 326 347 353 348 456 410 349 325 310 310 293 256 252 260 287 318 328 334 371 450 338 312 346 459 408 349 325 350 340 331 333 359 360 352 329 346 308 335 367 367 348 353 375 446 417 384 351 344 327 316 327 324 324 334 328 315 303 307 280 290 299 299 314 330 317 323 335 333 336 347 383 460 519 433 395 350 333 327 324 319 314 313 287 282 297 297 296 308 311 311 314 306 302 307 298 286 279 275 275 269 263 246 256 262 262 257 249 253 258 255 255 243 246 245 228 232 241 247 247 259 267 259 257 248 238 239 226 220 223 232 226 239 240 235 239 238 225 217 214 212 213 216 223 233 231 216 205 185 193 203 195 192 177 191 217 200 207 196 197 201 197 200 187 183 181 180 178 165 172 159 158 176 169 158 168 168 164 166 162 146 154 167 146 141 142 157 152 162 161 163 169 169 150 146 156 169 175 178 193 198 185 166 160 194 206 204 188 174 187 202 189 205 215 223 221 213 212 198 190 185 179 186 194 190 192 201 200 203 197 186 182 195 191 182 189 195 197 206 201 194 185 180 179 172 176 185 182 182 184 180 181 173 173 179 176 168 159 174 170 176 185 177 163 167 176 168 162 165 170 180 182 184 185 184 193 201 198 201 204 188 191 191 199 198 200 197 190 189 192 194 205 193 193 183 176 172 183 181 170 166 173 178 188 184 189 192 189 186 186 180 173 166 162 164 160 161 157 154 149 144 144 142 136 139 142 136 127 106 87 90 99 107 108 99 108 119 124 121 107 104 109 118 132 143 130 125 133 138 123 123 138 139 123 122 136 137 128 120 97 124 120 97 97 94 120 133 137 137 140 136 124 101 80 76 70 66 70 47 75 99 110 96 67 77 83 76 61 70 79 77 76 81 78 76 80 83 90 92 96 104 117 122 114 112 122 119 123 124 114 101 94 96 104 109
190 222 261 200 239 304 388 455 451 303 264 392 422 308 196 191 186 187 187 200 219 227 217 198 208 223 185 212 337 446 461 461 456 461 463 460 462 467 460 461 458 454 441 394 432 445 457 457 342 314 268 231 261 283 231 228 262 220 219 322 489 542 523 476 442 403 260 229 215 253 274 248 291 296 277 268 277 262 242 239 237 232 220 212 219 242 265 225 221 240 283 285 284 266 256 235 226 235 317 282 272 265 250 272 259 250 255 282 261 276 274 270 292 291 267 265 240 249 240 241 231 242 263 272 274 258 263 240 235 220 221 229 228 237 255 251 249 254 268 302 263 281 371 395 387 391 455 487 498 496 489 489 492 474 514 554 572 638 751 960 843 819 900 778 714 814 866 812 881 814 649 591 568 556 549 549 543 522 530 513 519 523 542 559 586 586 524 492 498 500 508 514 511 528 550 542 548 520 540 528 511 560 624 607 606 618 612 609 619 703 702 688 608 584 583 569 573 568 653 582 549 543 550 556 553 564 590 596 609 610 606 626 642 632 628 658 700 707 761 892 815 718 705 707 697 624 579 580 631 640 678 766 766 683 719 708 679 634 610 635 620 595 616 660 633 675 698 656 652 667 638 650 657 696 693 747 808 966 958 872 818 873 911 736 668 720 735 698 713 675 670 717 646 691 737 819 717 685 684 684 728 845 830 679 760 795 875 920 1044 959 869 876 803 696 702 728 789 713 673 687 694 666 643 615 621 658 665 570 529 603 596 534 565 578 574 596 637 657 662 559 440 399 374 369 352 374 360 339 342 327 341 332 366 438 369 353 346 333 308 288 263 250 289 317 317 349 342 374 388 315 294 318 357 385 378 339 320 310 318 360 361 353 331 323 319 319 359 370 344 342 363 379 420 391 371 355 341 342 332 331 323 322 321 322 315 316 296 276 280 299 304 302 315 311 310 315 317 317 320 331 395 494 471 372 336 326 314 307 295 302 305 298 289 274 282 280 294 300 295 303 303 292 293 289 287 280 268 264 260 253 252 240 242 247 261 268 243 244 248 248 251 244 238 235 223 234 240 251 261 267 269 252 252 255 245 239 232 213 216 224 225 234 238 242 231 230 233 233 236 237 236 238 225 207 206 199 192 177 185 179 190 184 174 207 193 188 186 184 189 190 200 201 192 195 189 174 182 174 164 150 152 147 144 144 153 146 153 153 147 151 156 164 140 143 165 153 161 162 154 155 152 148 156 161 165 168 178 180 195 190 156 179 185 181 196 192 172 187 187 192 209 213 222 220 209 209 208 201 194 184 184 183 181 187 193 193 197 196 193 181 183 188 179 185 188 192 203 201 199 188 188 193 178 181 192 193 183 182 195 188 187 188 186 179 173 154 153 164 168 176 177 168 164 163 162 164 180 179 193 193 199 194 183 186 198 200 204 204 193 196 198 196 204 203 199 193 193 200 201 200 196 190 182 173 181 188 177 171 174 173 180 188 192 195 197 191 191 183 177 172 169 172 167 166 163 160 156 151 145 137 136 135 143 138 118 106 98 88 88 99 102 111 105 106 116 117 122 109 105 119 123 130 148 154 143 148 146 139 125 126 130 137 123 115 132 116 113 90 108 118 104 93 87 99 111 125 132 127 134 135 128 103 77 74 63 70 57 53 87 93 87 79 65 67 58 78 85 79 76 88 96 90 95 96 96 103 110 108 102 106 119 129 125 128 121 115 107 110 104 98 92 88 103
191 189 209 196 190 229 388 432 373 277 205 242 364 312 206 188 185 183 193 204 212 211 200 212 235 199 185 264 338 410 467 453 456 458 447 451 451 450 448 454 458 463 460 445 417 438 444 394 371 476 371 280 230 230 244 249 223 250 358 511 542 555 539 473 453 359 251 226 221 255 277 298 308 296 280 272 264 244 238 237 235 228 220 216 221 255 272 224 228 257 268 297 286 266 245 237 234 256 336 279 273 289 263 287 269 261 276 262 273 292 285 280 309 284 284 260 257 239 234 231 227 256 273 267 258 252 253 234 226 220 228 239 228 245 246 245 245 254 282 290 256 283 413 451 447 439 408 429 452 459 491 517 522 512 586 584 623 699 842 1017 934 933 997 896 835 775 787 799 857 841 704 644 616 563 567 569 571 551 546 539 519 539 558 562 575 550 538 535 507 506 488 510 523 524 532 533 502 532 522 510 555 578 591 615 612 595 600 597 636 658 677 673 659 639 641 607 578 569 626 606 542 538 541 552 563 572 576 578 585 600 625 694 744 714 680 694 697 747 814 879 910 868 843 736 661 617 582 593 658 761 791 947 878 778 789 727 723 760 715 709 657 605 595 613 609 605 626 646 678 688 746 789 784 716 764 782 794 883 935 875 810 804 795 799 748 640 675 668 692 639 681 637 692 808 906 871 835 841 791 784 754 800 775 679 686 730 764 852 959 904 757 721 726 763 677 639 665 705 637 629 602 590 595 597 675 712 618 551 559 517 527 608 578 638 652 608 706 663 608 465 395 377 354 346 344 370 352 339 334 321 333 336 363 384 368 349 331 323 305 266 255 267 294 280 298 303 305 317 323 296 284 355 391 349 340 346 323 311 315 337 336 319 315 298 323 347 358 352 336 348 345 370 441 389 382 365 393 361 339 337 332 344 327 316 321 298 281 281 299 314 307 303 327 322 308 302 307 316 322 334 348 461 480 392 360 332 317 305 296 293 285 287 284 280 281 272 272 290 284 292 294 295 283 278 276 270 271 271 274 266 273 265 250 236 242 261 260 254 229 237 245 252 242 240 240 229 241 245 245 259 258 259 258 254 250 242 235 229 218 203 221 223 230 239 234 237 238 241 241 232 222 218 218 201 200 208 200 209 213 195 185 180 162 178 186 177 173 173 171 193 192 188 177 177 184 189 190 181 171 162 154 158 168 168 165 159 163 149 141 140 144 161 138 139 160 150 165 162 144 140 146 149 152 161 174 172 185 190 198 182 165 168 167 179 194 188 164 176 181 178 203 211 211 214 208 204 204 201 193 194 196 188 181 181 179 189 187 184 185 184 178 183 174 179 187 190 199 202 203 201 197 202 188 195 200 194 185 190 200 196 193 187 178 171 164 155 154 163 168 175 176 165 154 160 167 171 184 190 191 196 196 203 193 188 192 196 207 210 202 199 206 200 208 209 202 198 200 202 201 192 185 182 184 181 192 186 183 176 182 185 182 187 196 201 198 195 189 188 182 176 175 179 174 169 160 155 153 147 139 138 142 141 145 124 114 111 98 90 89 106 110 116 109 115 123 128 134 120 114 115 117 142 169 169 158 150 141 135 125 115 120 114 105 101 111 101 95 86 92 116 119 108 86 77 96 98 117 108 102 124 120 115 112 106 72 58 52 46 69 66 58 62 56 58 69 81 82 83 77 77 85 95 95 95 106 106 114 121 128 128 124 133 134 130 127 125 120 120 117 112 107 92 88
265 199 186 188 185 229 397 424 263 206 196 209 288 240 211 201 194 203 201 200 207 194 205 237 206 181 202 203 290 444 467 452 453 458 439 439 430 436 434 440 447 466 469 459 437 450 460 429 470 456 320 251 222 231 266 228 259 408 534 528 503 497 492 456 469 304 243 219 234 273 312 308 297 296 283 273 258 235 231 233 231 226 223 213 230 269 255 224 233 287 273 290 275 264 240 231 231 263 306 256 254 266 256 282 268 270 285 263 284 303 298 309 295 262 274 262 258 237 242 238 229 258 270 259 252 247 248 234 231 220 221 230 232 247 238 243 245 248 264 274 251 277 372 423 431 383 424 490 501 485 499 519 552 544 586 614 636 756 938 1026 1039 970 1060 956 835 780 768 799 838 833 727 664 592 568 620 622 581 569 563 563 550 541 544 565 557 566 556 529 484 509 531 495 516 517 524 504 492 505 508 537 570 607 581 596 589 600 581 592 634 622 629 648 693 686 698 649 604 593 628 596 558 555 554 547 552 582 571 582 610 640 618 643 693 816 791 832 827 838 845 770 778 836 742 680 638 614 590 606 684 753 918 1083 1075 933 921 874 816 830 683 630 615 646 654 625 608 642 665 657 649 719 755 795 833 857 940 860 879 965 908 849 841 856 799 720 687 630 676 664 696 646 671 690 802 896 860 848 882 887 889 900 916 874 764 668 758 874 873 902 990 933 872 730 674 676 729 670 584 632 620 557 557 560 587 560 653 645 559 523 530 534 626 643 633 692 689 629 678 670 574 440 383 357 339 344 359 360 348 344 330 319 324 326 350 345 340 327 319 308 318 320 278 253 266 293 309 312 304 302 297 291 288 301 326 349 347 395 360 331 308 311 310 299 305 327 341 356 350 358 327 338 348 357 394 362 360 358 359 349 341 344 344 345 325 314 299 291 295 312 283 276 286 315 327 317 313 305 306 310 330 322 328 366 448 410 369 343 323 307 299 306 300 293 292 289 281 269 263 279 282 273 281 293 289 282 281 285 282 286 287 283 277 267 255 255 255 244 250 252 241 232 225 233 246 240 232 227 224 242 248 252 244 257 253 239 238 238 229 230 218 199 208 223 221 237 227 226 227 225 227 230 226 218 210 210 229 218 206 223 219 214 210 189 178 166 159 162 160 150 163 181 182 171 167 169 188 184 192 183 178 178 181 182 184 181 169 168 177 167 161 154 148 145 139 134 142 152 163 154 142 142 176 170 160 169 179 190 189 197 191 178 159 164 189 194 187 179 160 177 173 176 197 200 190 196 206 207 206 197 195 194 194 190 194 197 180 176 175 171 172 177 176 171 173 181 182 185 192 192 191 189 192 195 200 202 198 191 191 202 199 188 189 191 180 170 158 151 161 173 180 169 169 149 153 155 167 174 172 178 185 188 193 204 203 200 201 210 212 212 200 203 214 215 213 214 208 203 213 203 194 189 191 196 194 183 195 193 188 179 182 187 191 190 199 207 197 192 183 184 177 168 173 175 170 162 154 143 140 141 137 141 147 144 134 133 126 122 101 94 92 110 110 113 118 117 123 144 156 135 119 120 132 144 157 152 140 137 134 126 125 138 136 126 118 120 103 95 97 89 93 93 104 92 81 76 77 79 85 78 76 110 104 98 110 106 84 68 62 47 55 70 77 80 84 82 72 77 89 93 89 77 78 77 82 90 95 96 107 119 125 128 124 124 125 129 129 129 126 126 118 110 101 89 82
361 337 211 190 183 227 393 449 316 257 208 191 195 198 198 194 204 214 222 192 187 192 222 200 181 180 183 204 368 456 451 445 447 445 431 422 413 432 448 454 451 454 466 458 444 450 471 491 489 334 265 228 223 232 232 258 412 548 538 507 482 461 454 451 397 272 245 220 257 272 295 286 296 290 277 264 248 233 225 232 234 220 217 217 237 270 242 225 246 296 296 291 280 258 240 231 244 302 278 252 238 246 256 278 272 284 294 265 294 295 304 305 274 254 263 245 238 231 229 231 236 274 259 248 249 240 250 235 241 228 218 221 233 239 230 235 240 244 252 260 247 278 357 372 350 388 421 455 507 558 552 551 622 628 620 631 678 799 933 1036 1140 1066 1069 905 830 835 797 787 808 769 743 684 663 658 646 593 646 583 570 562 546 558 550 537 561 598 569 518 497 510 529 501 497 495 491 499 525 525 532 511 540 552 557 575 575 584 566 579 602 611 595 634 644 659 684 690 619 605 614 587 574 573 574 552 555 561 551 572 585 588 592 631 679 721 651 659 720 683 652 646 686 697 693 633 642 619 604 599 635 704 803 894 1083 1090 1013 899 725 689 644 633 698 744 700 607 618 721 813 830 775 728 788 853 877 910 950 847 803 896 887 796 766 795 794 735 659 634 695 665 627 659 698 790 821 834 822 823 865 884 948 1024 987 886 726 698 765 883 783 746 810 789 824 819 720 621 628 607 558 532 533 549 546 528 544 590 686 572 529 528 565 690 665 643 678 616 600 571 587 568 488 404 378 355 344 340 343 341 354 341 336 333 313 320 354 354 343 330 329 310 298 297 258 251 260 288 286 295 286 275 281 264 276 312 337 354 348 361 352 328 305 310 300 292 310 326 345 351 335 330 323 335 366 390 389 338 367 335 336 346 347 349 341 334 318 303 314 317 321 304 286 275 290 296 299 304 311 308 301 312 320 311 318 338 350 371 347 331 320 317 314 312 309 305 304 288 276 275 270 265 270 266 276 286 289 290 291 294 297 294 294 285 281 273 265 265 252 241 230 248 250 238 236 229 225 233 231 232 219 238 235 241 236 255 251 246 232 230 222 217 211 202 194 206 227 235 230 216 214 216 230 220 228 232 240 233 230 239 237 236 234 230 220 197 193 174 173 167 163 164 149 156 164 157 162 183 186 172 181 172 171 180 187 192 196 184 176 183 181 173 167 163 154 144 131 133 150 171 149 142 158 160 168 182 176 160 172 181 189 187 173 172 154 159 175 171 171 168 159 163 166 174 182 174 177 199 210 204 202 199 205 201 201 194 185 190 183 173 169 167 166 172 175 169 170 175 178 186 190 188 186 181 182 188 187 194 197 200 202 196 193 186 176 182 178 168 153 165 167 173 177 165 162 155 171 178 183 193 189 198 211 210 210 209 209 208 208 209 213 206 194 200 210 209 212 220 217 215 214 199 196 198 203 199 191 188 198 193 185 184 189 187 199 200 198 194 190 186 185 179 174 168 163 166 162 155 141 144 144 142 143 144 148 145 139 136 119 108 106 93 94 105 108 107 116 125 128 130 129 134 129 128 145 171 168 160 158 149 144 140 138 139 142 137 136 128 122 123 121 118 110 86 91 98 80 72 66 66 63 62 66 73 75 86 84 81 90 93 70 48 45 76 83 81 85 89 92 83 86 97 99 98 85 90 94 86 86 104 116 117 111 111 108 113 119 120 125 120 119 120 116 114 107 97 84
289 416 339 320 217 186 274 362 282 285 203 188 188 193 193 207 223 228 207 188 185 189 182 206 246 237 187 200 349 415 434 431 437 430 417 408 416 427 447 468 475 479 468 470 453 464 487 498 393 268 233 227 230 214 235 391 561 558 558 536 471 498 464 500 390 306 257 224 279 292 291 278 276 286 258 253 238 225 224 226 233 224 217 220 253 261 234 227 260 290 302 284 275 257 236 235 298 345 306 263 239 256 273 273 269 290 285 271 292 290 315 311 275 264 244 238 232 236 235 228 240 262 259 248 242 237 247 235 236 229 216 228 224 224 222 228 233 245 243 242 246 293 303 336 343 400 469 469 520 589 586 625 742 680 716 628 655 750 956 1098 1185 1129 1043 875 852 808 797 854 855 699 666 646 619 602 588 575 580 565 571 575 560 594 579 581 587 592 549 530 524 509 510 530 515 515 491 511 507 539 559 530 509 541 553 553 559 572 555 548 576 588 596 601 603 618 661 697 641 660 648 633 589 587 570 565 553 582 567 557 558 552 571 603 621 637 615 606 617 608 630 682 671 770 788 686 721 644 667 642 671 680 736 904 1059 1196 1003 788 698 683 646 670 753 822 715 621 647 669 793 972 934 888 790 922 1045 1085 1056 853 754 804 851 778 729 710 707 675 625 622 640 616 617 718 713 797 807 822 813 848 971 952 921 912 808 704 637 653 664 804 801 700 678 672 660 674 655 597 542 549 568 608 613 555 554 528 506 563 613 537 507 533 562 626 605 572 625 614 569 549 553 518 465 399 369 363 349 330 334 360 361 343 338 323 309 318 329 347 356 338 327 316 286 284 268 259 281 307 302 288 265 259 266 297 321 314 334 342 346 342 348 333 316 310 292 292 320 324 319 323 318 328 336 353 405 369 358 324 332 351 359 358 345 341 329 320 327 332 327 326 310 304 304 291 269 294 298 307 313 307 301 303 307 307 312 323 337 379 367 342 326 312 310 301 298 292 296 289 289 287 287 278 266 260 271 271 278 288 287 298 302 290 282 273 283 271 266 256 255 256 234 230 240 253 249 237 235 221 218 220 222 220 226 231 238 246 239 246 239 234 229 224 210 202 201 207 226 225 225 214 222 223 212 224 218 239 244 229 216 223 224 228 236 238 221 210 200 197 198 188 185 182 171 175 166 166 154 170 178 182 168 160 158 173 172 189 186 193 184 189 173 165 182 181 169 155 146 137 156 158 143 153 168 170 179 185 180 181 177 186 192 187 165 162 148 162 162 149 158 156 159 157 164 162 175 174 180 195 202 204 200 194 194 194 199 202 193 181 176 175 174 170 167 165 168 168 176 183 187 188 187 182 175 177 169 174 186 198 206 207 206 195 183 181 171 170 176 164 151 165 173 178 165 157 158 173 183 198 203 207 205 207 223 216 206 196 199 207 202 204 204 198 187 191 201 199 208 208 211 208 202 199 207 202 203 204 192 191 201 195 199 190 192 190 197 203 196 188 184 182 182 181 175 168 159 160 155 147 147 147 146 149 146 144 146 144 127 113 101 100 96 95 103 106 111 110 123 125 123 119 113 126 131 139 153 156 161 158 150 148 154 149 148 146 149 141 127 116 101 112 109 101 84 76 80 80 75 71 83 83 84 90 94 78 60 80 73 67 77 73 65 42 43 68 75 78 83 87 94 97 96 97 103 103 93 101 99 100 104 106 114 105 99 102 111 123 121 122 117 111 112 108 105 97 90 89 82
233 396 414 402 271 183 190 211 261 356 249 188 189 194 206 222 218 204 191 189 182 182 222 326 400 273 247 200 238 312 406 418 435 418 402 432 435 429 454 483 483 470 448 474 476 477 489 437 295 240 225 231 219 226 335 537 575 563 557 495 502 523 491 548 442 291 252 228 291 304 295 284 263 255 250 240 229 225 220 228 227 224 219 226 263 245 231 234 285 305 299 286 268 252 236 248 350 317 277 258 246 254 282 276 274 302 284 299 302 297 308 308 269 264 245 231 223 229 237 223 242 259 248 238 235 235 236 239 246 241 220 214 228 236 224 228 233 260 263 237 240 249 287 318 377 416 419 500 631 649 642 715 779 807 858 758 668 810 973 995 1112 1152 994 887 828 835 809 880 943 776 719 670 645 636 598 614 659 614 604 570 584 567 605 630 622 551 538 531 530 534 518 525 533 515 499 491 512 546 552 541 541 534 522 521 520 532 532 535 541 567 557 562 559 580 623 650 709 715 625 610 585 570 556 583 578 607 593 600 586 567 555 555 578 600 584 585 587 604 627 635 709 861 889 790 722 732 794 789 839 787 813 884 1129 1195 1037 864 722 665 678 746 850 805 713 619 714 758 733 826 1021 1053 997 951 1086 1060 1035 931 764 740 754 779 803 710 625 649 608 618 648 630 657 717 835 777 788 794 820 846 781 764 760 673 636 620 611 634 641 757 749 708 631 595 591 587 585 569 539 575 617 663 650 605 620 537 493 523 511 509 548 589 655 571 547 553 577 553 549 544 541 534 520 396 370 353 345 327 324 338 336 338 350 337 312 303 325 326 334 327 315 311 293 289 265 263 300 297 284 259 253 277 293 298 305 335 366 348 352 335 321 315 306 286 286 300 306 314 319 322 323 337 351 332 323 322 321 353 361 386 362 348 338 332 333 335 325 319 314 308 316 314 308 289 277 280 300 322 327 319 306 299 303 306 313 314 318 333 323 325 313 305 297 294 287 279 280 280 274 279 287 288 278 260 269 267 271 284 281 291 293 287 278 264 278 274 271 260 248 245 234 224 236 240 244 251 247 236 227 217 209 214 213 222 220 228 236 241 236 231 216 210 207 206 195 208 215 207 215 217 205 205 225 216 212 241 232 226 210 214 209 214 224 224 227 216 201 195 188 177 172 171 179 190 194 176 152 153 172 173 168 167 152 150 175 183 177 183 176 175 176 156 168 180 183 173 152 141 160 150 150 152 152 154 164 165 178 187 192 190 193 182 168 155 145 154 150 160 159 159 172 177 183 192 202 183 184 196 203 208 206 200 193 185 193 202 195 180 172 173 171 167 165 163 163 166 181 190 190 178 180 178 167 163 173 180 192 201 210 209 198 191 188 181 178 172 163 170 152 159 171 168 154 151 171 185 203 210 210 218 220 212 224 208 193 189 195 201 199 192 191 186 185 195 196 196 203 200 202 211 214 203 204 205 201 196 195 209 204 207 212 197 197 199 198 200 194 191 183 177 173 178 173 170 159 148 146 147 154 148 148 158 152 153 148 137 111 99 101 111 110 97 112 111 110 120 113 109 119 111 113 121 134 151 156 145 144 139 146 136 135 139 136 141 137 133 130 125 106 100 97 83 99 87 87 81 95 89 94 104 105 118 117 111 79 59 66 59 75 60 41 45 46 69 66 76 74 79 85 81 94 102 100 105 105 107 109 111 120 112 103 93 100 109 119 121 108 110 111 104 109 104 99 97 99 99 94
193 235 231 221 201 184 187 260 373 315 218 187 188 202 222 228 209 188 189 182 183 194 307 442 429 400 373 229 187 225 373 418 398 371 412 418 433 455 457 466 459 446 459 466 472 477 429 307 256 226 219 218 218 270 470 589 565 532 514 525 562 556 518 574 405 282 239 249 294 301 295 290 278 251 237 234 225 225 223 235 236 224 219 244 269 244 233 241 296 293 294 280 266 248 237 285 352 300 276 244 255 258 277 279 280 302 290 309 293 298 286 283 267 274 243 243 230 232 227 224 250 261 253 239 231 227 227 240 237 229 221 214 240 238 231 235 239 269 287 256 249 268 358 385 384 379 415 527 783 860 765 809 879 876 922 911 721 740 860 944 939 1013 1031 907 868 864 848 849 880 770 717 692 643 622 626 670 716 653 646 598 625 586 589 617 606 543 559 555 538 540 531 543 520 504 496 525 517 525 526 552 551 550 540 545 551 568 600 628 613 575 571 599 592 600 597 622 659 663 611 587 583 568 578 613 713 658 634 643 623 566 557 569 579 571 566 575 600 644 727 715 741 851 824 851 703 819 987 978 1034 985 1049 1072 1242 1187 1014 912 805 844 794 861 867 781 703 620 753 886 932 935 980 1092 1153 1188 1081 965 931 981 834 734 690 741 771 688 635 672 660 609 661 717 691 773 810 750 756 779 750 737 670 652 612 613 599 595 586 609 646 663 705 714 675 663 653 610 595 585 587 613 557 535 558 557 567 494 496 498 523 535 626 617 576 550 535 547 542 538 535 524 536 564 548 435 393 355 326 324 326 332 330 322 325 318 318 300 299 313 320 328 310 297 302 302 276 256 270 272 255 251 257 271 272 274 302 324 360 355 335 319 311 300 311 306 291 294 312 325 321 321 319 327 325 312 321 336 322 346 366 357 339 330 331 328 318 324 316 306 310 303 298 297 307 299 279 277 307 324 321 316 308 302 295 303 304 310 306 307 302 306 308 300 297 291 282 290 289 284 277 274 273 270 271 264 260 260 271 282 276 282 285 282 279 264 260 268 272 266 258 249 247 244 231 221 230 239 244 242 239 229 214 211 214 207 208 226 224 230 231 220 219 223 217 210 201 203 203 194 191 211 216 202 215 193 216 231 218 224 217 198 196 210 216 205 216 215 206 212 202 190 190 174 174 169 163 157 147 151 150 156 156 158 166 166 170 151 151 166 157 145 158 151 155 169 167 171 162 142 167 147 162 177 170 155 151 163 174 184 195 182 186 188 175 168 146 145 151 164 173 177 180 191 194 196 205 194 198 205 201 205 200 201 199 188 191 200 191 180 177 171 168 164 164 164 160 163 182 190 189 178 166 170 171 177 181 181 196 207 206 203 209 204 204 192 176 165 162 161 154 172 174 160 149 154 174 185 182 190 198 208 206 211 201 191 182 184 195 187 177 183 179 179 185 188 191 195 195 204 208 211 211 213 214 212 214 209 209 216 220 219 217 204 205 199 193 193 191 186 183 178 172 167 168 169 163 152 143 152 156 151 148 154 154 154 158 144 123 99 112 125 108 102 106 115 127 127 107 105 107 103 118 125 138 146 158 155 137 132 137 140 126 124 123 132 127 125 117 116 94 85 93 104 110 99 105 98 98 102 100 93 108 111 119 99 71 57 51 52 57 48 39 47 57 51 67 72 77 76 80 79 81 85 92 105 110 110 111 106 105 96 88 97 109 118 129 124 113 102 99 106 111 109 115 114 105 108 107
193 188 191 191 186 183 187 204 262 208 189 185 190 214 224 212 194 183 182 182 214 329 417 451 449 443 399 291 258 221 272 406 384 344 401 425 433 437 450 440 435 434 441 456 472 419 290 250 227 223 217 223 241 396 562 587 567 554 550 559 566 562 555 592 367 278 240 277 309 295 284 278 272 251 235 223 223 227 226 234 239 229 226 260 261 245 236 247 301 286 288 274 259 246 243 334 330 303 295 248 247 265 268 269 281 288 290 310 283 290 282 271 271 278 248 249 234 233 229 221 241 259 246 236 225 227 231 238 236 225 221 217 230 238 235 243 249 280 296 267 260 277 321 328 371 401 431 566 838 974 979 913 938 953 1062 968 844 771 815 830 933 963 910 932 948 949 935 847 852 868 757 688 730 789 717 721 704 672 648 601 656 625 593 614 585 561 553 577 592 544 555 525 517 499 522 543 517 507 507 523 542 561 578 582 572 580 595 610 627 599 619 649 636 630 654 655 642 639 619 591 573 582 606 662 691 666 667 628 578 550 546 559 562 566 579 616 617 699 711 690 664 773 722 718 651 805 776 797 1042 1110 1184 1185 1320 1274 1132 1006 977 905 736 735 707 678 659 622 684 808 869 817 850 920 996 1120 1032 1007 957 901 918 747 644 713 694 694 675 658 661 611 678 695 690 748 798 730 661 693 704 707 714 674 690 671 619 598 620 645 765 747 684 729 594 624 730 724 768 689 628 605 612 581 523 502 505 495 525 537 588 602 598 579 542 533 523 534 539 515 517 517 543 553 549 474 424 397 334 344 330 319 321 314 304 300 312 300 300 319 310 302 298 296 279 300 278 249 251 249 255 257 269 296 295 288 294 320 348 364 351 341 314 299 296 281 289 306 316 301 299 297 301 309 318 325 335 341 331 328 337 346 343 336 327 318 308 319 306 299 298 291 290 284 303 297 289 279 303 320 314 308 314 309 302 295 299 308 304 297 299 303 306 308 314 305 298 299 305 300 286 286 282 278 262 267 259 253 264 265 270 274 272 268 271 263 247 260 264 262 257 255 248 245 238 229 216 224 230 232 228 221 214 203 200 190 196 209 211 219 235 237 236 221 214 220 211 210 217 214 217 197 195 200 194 184 202 229 208 218 211 202 199 210 207 201 205 210 215 205 194 191 175 177 178 167 171 172 161 159 150 163 159 167 189 181 176 161 157 149 146 148 143 156 160 146 147 149 167 149 158 145 153 176 172 172 180 168 176 183 193 192 180 177 159 154 138 148 155 157 155 165 172 179 188 206 206 204 209 206 197 200 192 197 202 192 183 188 184 180 174 169 167 163 160 161 159 163 182 181 172 172 169 179 177 176 182 185 193 203 204 196 205 216 207 192 177 181 159 148 145 162 171 159 153 165 171 175 183 191 193 190 185 189 186 176 176 180 176 174 184 193 187 188 195 200 194 198 199 200 194 201 208 215 213 208 206 203 204 208 204 206 201 204 202 201 189 186 185 182 181 180 173 169 159 155 152 151 152 160 162 154 149 152 156 155 149 128 102 104 122 118 113 109 114 122 119 113 106 106 104 102 111 127 144 140 149 155 146 134 129 119 117 111 115 120 123 118 100 95 90 101 96 112 118 105 114 108 105 98 86 74 87 75 79 97 84 66 55 46 40 44 45 72 79 65 64 73 80 74 88 92 96 99 100 102 105 102 101 92 85 89 97 103 111 118 111 109 100 105 94 97 101 108 111 102 93 101 107
183 194 197 188 185 185 185 183 183 184 189 190 198 214 213 193 187 182 181 221 371 454 456 448 445 439 431 410 336 248 242 278 331 413 417 428 436 418 438 420 427 446 465 474 421 289 280 251 228 222 223 243 269 451 584 587 588 586 590 579 584 541 615 512 321 253 260 301 289 290 280 270 258 245 232 227 226 225 233 240 239 227 239 281 255 248 244 251 308 290 274 265 250 244 273 360 346 333 288 249 246 265 265 262 289 270 282 285 287 304 286 266 271 280 256 251 230 232 225 220 245 259 250 240 235 222 231 233 225 215 216 230 247 233 242 250 260 280 283 264 256 254 285 375 388 422 480 593 781 1021 1008 970 1002 1080 1139 1022 916 826 799 856 988 848 808 837 955 874 954 891 914 1037 894 831 903 898 798 783 753 751 672 642 700 629 610 608 584 559 565 602 576 566 536 522 539 536 547 550 523 517 510 509 533 547 545 560 582 611 651 679 678 688 686 705 675 668 683 689 645 615 611 609 573 616 661 652 634 617 602 581 575 578 558 562 571 558 604 628 599 657 628 638 680 669 670 620 653 684 677 797 976 936 994 1053 1266 1207 1091 1003 922 807 734 766 804 709 680 633 667 674 720 738 786 870 963 1006 955 909 896 858 840 843 695 640 633 633 655 596 588 592 695 668 661 670 662 665 715 701 693 735 802 692 610 626 594 595 609 621 607 538 577 592 541 568 725 785 645 590 559 529 568 577 544 517 478 514 523 543 597 593 530 539 532 511 504 519 503 500 525 541 534 537 539 497 362 346 335 341 339 346 350 338 319 312 294 295 298 310 311 303 280 272 277 301 286 254 255 250 278 287 285 285 297 296 307 338 350 350 341 338 322 308 298 296 287 303 287 283 289 308 321 327 333 330 331 328 314 320 341 342 336 324 323 329 327 310 300 306 287 279 279 284 289 299 293 272 285 309 315 306 304 301 301 289 298 305 299 286 292 299 299 309 330 337 325 312 300 295 290 291 287 280 269 265 260 251 248 260 259 268 270 258 261 248 241 257 268 268 265 258 249 237 230 225 228 207 221 233 236 229 218 215 209 206 197 192 214 227 234 240 236 226 230 224 219 227 218 221 225 212 195 189 190 190 188 209 207 194 194 204 192 196 195 194 187 209 213 195 188 187 197 189 175 181 189 169 155 168 168 188 161 180 194 176 167 171 181 163 172 161 157 160 162 162 159 147 151 154 148 140 151 154 164 176 199 188 186 184 193 178 166 176 160 142 142 139 145 159 166 178 193 194 199 202 207 207 201 205 200 189 188 184 198 195 179 176 182 178 172 171 169 166 161 159 158 161 164 165 166 169 176 182 190 188 192 198 200 207 203 195 193 204 202 189 187 179 173 160 143 153 162 152 153 166 185 189 188 187 187 182 173 180 179 172 172 167 168 186 188 193 191 193 193 197 202 194 192 190 195 208 212 204 206 210 202 194 196 206 198 197 194 195 197 198 194 191 184 178 179 180 178 170 158 151 154 161 159 162 164 154 150 150 153 146 124 107 103 120 125 119 117 113 124 118 110 107 111 107 101 99 122 142 138 141 134 139 138 140 136 132 128 124 104 103 101 101 93 96 102 110 108 105 117 113 108 99 93 90 90 71 60 56 54 55 61 52 44 42 51 72 90 92 89 65 68 62 69 84 88 96 98 98 99 99 91 94 89 82 94 99 104 110 117 110 102 98 94 97 94 100 110 106 106 102 92 91 102
306 356 307 190 192 192 185 184 182 181 188 192 200 207 193 186 181 183 208 356 462 455 445 438 439 426 390 350 347 253 350 404 415 417 415 426 420 412 417 423 439 451 469 460 320 285 284 236 231 231 278 398 304 482 577 596 634 603 607 588 595 565 500 354 283 248 282 293 299 286 278 264 244 240 231 234 225 227 231 243 239 234 268 277 257 249 245 277 302 293 284 272 249 241 327 338 310 323 277 263 243 251 277 267 283 265 288 289 314 335 283 264 254 284 265 252 234 225 218 225 237 269 256 239 237 227 231 225 216 213 225 242 241 235 240 245 256 276 262 250 248 243 288 363 412 462 547 685 786 811 879 960 1000 992 935 946 953 878 865 909 918 809 712 776 815 838 946 955 936 1098 1083 990 980 918 857 810 742 674 655 649 637 625 603 574 575 563 586 592 573 530 526 543 557 557 569 525 509 515 544 518 524 533 570 605 612 620 627 683 682 651 662 694 750 711 664 637 635 622 601 594 598 637 682 654 618 600 590 584 596 581 563 569 570 560 577 583 601 629 594 613 624 614 607 654 636 650 730 844 881 799 891 1057 1177 1064 930 894 830 840 917 965 885 758 693 643 706 758 784 882 862 947 1050 1037 996 981 969 947 795 758 696 664 592 599 624 586 654 618 635 605 690 816 858 775 684 645 612 597 650 630 590 602 590 605 626 688 636 521 503 533 522 517 554 655 683 579 526 507 519 522 519 491 516 493 496 503 535 534 518 509 517 522 509 492 489 508 528 525 519 521 488 451 389 348 325 323 333 332 331 318 318 302 306 291 286 307 296 307 294 262 283 281 264 249 249 259 264 270 267 277 300 305 326 335 352 363 331 321 323 318 321 301 280 283 294 300 309 313 315 309 319 313 317 316 308 314 352 349 326 325 324 330 311 298 296 292 302 296 290 280 277 298 301 277 290 295 308 309 310 303 297 293 288 299 297 282 281 289 303 313 320 326 323 314 300 291 287 277 276 272 267 270 265 262 248 242 252 257 262 248 249 239 242 260 270 267 257 248 244 243 238 229 216 205 218 216 218 228 221 222 222 215 208 196 213 212 220 221 231 234 237 233 236 236 220 230 240 225 212 204 201 198 183 182 197 178 185 181 194 187 185 178 193 207 212 203 202 200 205 192 182 190 180 161 174 183 178 183 166 172 192 178 178 189 187 189 176 171 163 166 177 189 177 156 139 146 140 146 148 154 168 177 196 190 179 168 170 173 170 160 154 140 135 150 148 155 174 186 191 192 189 188 202 203 197 193 195 189 190 184 181 186 177 172 175 171 173 174 168 164 163 159 158 165 162 171 177 184 190 189 197 199 202 199 199 199 202 196 189 202 207 186 176 173 169 162 150 144 149 155 172 179 184 188 181 180 183 171 163 168 166 168 168 171 181 197 197 187 184 186 186 192 193 187 189 202 203 209 207 197 198 204 204 192 198 197 195 188 187 197 192 189 189 184 179 176 171 168 166 163 159 155 158 165 167 168 168 155 144 146 145 126 112 108 119 134 133 124 117 125 121 111 109 104 104 102 91 91 111 127 122 125 132 131 128 128 125 118 116 111 114 114 110 114 98 105 114 110 119 119 118 109 98 99 86 75 72 63 61 86 92 63 42 41 57 62 95 82 98 107 83 69 69 68 60 65 70 83 89 83 84 82 80 80 79 89 98 102 104 114 123 120 114 110 107 99 88 92 104 98 105 94 90 87 90
358 298 224 190 196 187 184 182 181 181 184 197 193 188 182 181 182 202 336 456 462 442 438 435 428 421 415 422 401 312 305 355 361 406 421 423 415 415 426 435 455 454 450 374 289 310 253 232 224 269 456 551 417 566 589 589 616 633 605 600 592 609 473 318 274 253 293 285 282 280 271 246 237 229 229 231 230 238 238 238 242 259 274 263 255 249 245 305 300 293 285 260 247 251 351 322 284 309 282 269 265 248 251 261 263 260 303 290 365 327 265 255 246 276 266 256 230 223 223 228 242 273 260 234 230 225 228 220 213 218 226 241 236 233 237 249 257 259 251 237 234 246 296 380 420 445 520 634 676 604 669 763 855 780 712 732 873 940 987 1015 897 783 675 674 709 721 873 963 967 1092 1066 905 868 838 900 767 706 725 747 691 688 657 586 592 576 612 585 552 537 525 557 566 586 573 542 526 510 511 513 539 569 598 591 593 583 602 594 610 620 622 695 802 833 699 651 627 611 602 589 588 637 645 630 652 625 612 595 591 580 570 553 583 602 597 614 596 577 574 581 583 602 594 621 632 618 675 711 775 765 798 907 973 1018 920 945 956 828 845 930 1011 988 821 692 687 686 773 806 939 941 1064 1106 1003 975 946 908 856 840 756 627 616 626 612 585 587 597 603 636 663 852 948 870 694 673 695 680 653 604 612 614 588 586 606 628 637 592 528 498 490 504 491 526 548 522 571 558 517 491 465 465 470 529 553 518 525 498 498 512 522 518 511 493 489 506 517 520 514 528 491 430 387 351 336 318 328 322 313 313 301 303 293 282 275 284 303 298 288 285 258 277 275 263 251 248 250 269 270 262 282 289 310 323 340 348 340 321 309 297 295 298 295 280 297 308 300 297 295 290 305 300 308 309 307 311 334 340 339 335 311 302 302 306 324 317 313 296 290 288 282 269 274 286 271 276 290 296 305 313 309 305 309 302 289 285 283 298 300 301 304 303 305 310 310 323 316 295 282 286 282 275 268 274 265 248 241 236 242 253 247 236 253 258 261 262 258 255 249 236 229 225 221 219 203 189 191 194 201 204 218 221 222 215 202 193 204 207 219 221 228 239 247 245 238 231 242 250 236 223 210 199 193 209 192 178 166 170 173 187 188 169 188 192 198 198 195 181 187 204 202 201 197 177 167 182 190 198 181 169 185 200 190 188 199 204 191 188 189 184 182 183 179 173 164 148 144 140 135 146 152 157 165 177 174 174 156 146 161 168 153 143 134 152 148 162 180 179 187 176 175 180 189 197 193 189 184 187 191 197 199 195 180 173 169 171 170 171 173 172 170 166 163 161 157 161 177 183 187 182 190 200 195 200 192 189 191 189 187 181 193 195 185 175 164 161 157 150 144 164 176 172 175 182 173 169 176 173 160 162 170 176 178 178 183 191 195 192 179 175 181 185 188 180 184 194 202 204 208 200 194 195 198 197 190 191 187 197 184 181 194 193 184 178 174 174 173 170 166 162 160 154 162 165 169 173 171 162 152 143 124 117 109 104 113 130 128 134 123 124 117 110 105 105 99 100 93 88 90 103 114 115 113 124 124 134 129 123 126 128 124 129 127 123 116 107 108 118 115 113 112 108 105 97 94 96 75 78 76 75 78 72 58 39 53 82 93 101 100 105 106 83 66 72 74 68 79 88 84 74 74 76 82 87 88 90 85 92 97 102 111 118 119 115 111 108 102 99 85 88 96 103 99 93 82 80
332 282 198 186 184 189 184 187 186 188 182 200 188 186 180 182 185 204 333 462 472 460 440 439 440 434 433 432 411 398 407 384 399 412 415 413 412 420 432 447 475 477 446 314 314 276 242 263 252 388 561 555 480 576 585 575 578 577 587 585 604 605 431 305 264 279 297 284 268 280 260 237 233 229 235 239 237 246 253 237 244 278 281 263 255 246 255 282 292 285 276 258 244 260 352 313 278 304 306 267 277 257 251 263 255 282 281 271 357 333 256 251 263 270 269 256 227 224 222 225 226 251 262 234 221 224 220 216 217 224 228 233 231 234 238 258 250 244 240 231 246 252 266 350 376 363 400 455 520 503 507 536 625 636 593 678 843 1023 1033 964 806 724 645 630 656 793 736 758 854 1067 956 854 824 795 806 769 728 772 832 700 586 556 613 599 570 569 555 530 514 555 603 591 657 597 553 542 537 518 529 547 575 595 568 580 582 581 598 598 688 696 693 736 848 727 677 660 643 630 597 589 590 592 595 612 629 612 625 617 590 597 579 582 634 666 642 626 600 587 583 628 617 608 610 611 626 683 650 718 703 716 764 847 822 834 971 926 863 799 820 836 803 780 736 711 728 733 785 847 874 963 1030 979 905 865 854 816 771 727 660 641 589 615 601 576 643 777 703 671 715 759 786 726 695 683 688 683 631 598 631 582 593 607 561 531 509 518 508 513 489 483 488 511 515 532 583 560 530 452 486 517 545 590 545 554 519 505 504 519 498 477 487 483 508 510 510 512 529 517 407 344 340 342 339 346 326 315 308 307 292 311 290 280 269 277 280 262 260 257 285 294 267 249 248 263 294 293 273 294 318 323 332 330 345 358 332 314 305 305 297 286 278 288 296 288 292 292 299 302 306 318 316 315 326 341 315 325 316 318 324 320 322 311 302 297 292 305 301 284 288 277 270 264 273 275 283 300 310 312 304 299 304 297 285 279 280 290 300 303 293 304 304 306 321 324 306 290 292 289 280 286 280 261 269 259 248 235 241 237 252 255 249 252 260 251 249 241 232 227 229 216 213 216 199 214 205 198 197 213 220 228 228 218 197 189 215 219 221 232 240 238 236 240 244 244 239 238 216 209 201 196 214 210 200 179 164 169 162 170 166 184 181 184 194 178 174 178 192 205 209 189 178 178 183 192 201 203 180 185 203 207 209 204 208 205 196 189 188 176 179 174 166 169 168 149 131 136 157 170 170 174 178 168 160 154 140 150 154 152 133 129 138 153 170 175 175 167 178 198 194 200 202 198 194 194 184 184 191 202 200 186 170 167 164 164 167 171 171 171 168 166 172 168 160 167 178 187 174 191 195 183 193 198 186 182 180 191 176 194 198 200 181 159 154 150 150 159 167 170 163 165 173 164 165 168 160 159 174 181 183 188 188 188 197 190 179 164 168 172 178 180 178 184 190 196 200 207 205 198 189 195 188 182 196 183 181 177 181 188 190 186 181 180 176 179 176 173 169 163 164 170 169 172 173 165 153 149 134 110 108 115 130 129 130 130 118 121 120 122 116 113 104 96 97 101 98 97 96 112 109 107 108 120 129 127 115 114 118 127 132 131 126 123 117 121 115 112 104 105 103 94 87 82 83 80 93 89 78 76 74 57 35 56 80 94 100 104 107 104 82 80 83 84 83 83 74 74 82 92 93 87 94 96 97 97 90 100 109 110 103 107 109 104 105 98 90 83 89 98 101 103 99 90 82
287 245 246 205 191 186 187 187 198 200 183 187 185 181 181 185 207 322 417 475 463 465 464 460 454 440 446 440 416 413 422 426 418 423 415 409 417 429 439 456 471 458 324 290 300 248 261 250 296 498 582 551 558 526 524 529 552 551 572 585 624 481 342 289 269 312 298 284 274 254 244 233 232 233 236 251 260 268 252 241 256 272 272 257 252 251 289 291 300 295 274 254 247 271 370 309 280 331 329 269 273 257 254 271 262 303 259 253 338 335 246 256 256 255 266 252 236 224 230 218 223 237 264 237 218 220 216 210 223 226 241 232 225 236 235 253 239 234 236 225 255 242 254 282 319 334 359 368 374 393 413 449 450 463 502 607 797 823 848 878 786 685 656 604 620 692 629 652 806 939 1013 966 929 844 772 746 833 782 677 613 554 546 621 623 573 534 535 503 566 618 587 658 604 578 588 617 562 523 555 558 576 563 570 573 599 701 638 629 733 803 801 765 828 738 697 717 662 647 622 598 599 619 605 630 712 705 701 684 647 615 595 586 611 669 747 747 720 614 582 616 614 621 624 654 645 628 630 659 668 718 720 731 769 834 1022 1022 941 876 823 789 799 749 709 759 802 835 868 868 884 888 1035 1066 944 886 858 809 773 741 689 598 610 591 590 575 642 733 674 628 644 691 719 739 728 741 669 653 679 635 596 592 606 584 566 610 639 573 595 539 496 484 496 492 477 496 536 501 472 464 505 523 541 564 577 576 540 536 508 489 469 477 486 489 496 497 506 514 524 499 423 368 383 359 358 344 337 325 324 318 317 313 304 298 286 267 266 283 271 256 290 282 262 248 248 260 276 275 283 301 317 326 313 316 337 382 370 342 323 312 302 287 279 286 283 288 296 305 320 312 313 304 310 304 314 312 322 331 328 327 325 318 314 309 309 316 313 307 286 275 267 267 260 263 255 271 286 300 307 306 301 290 286 296 303 291 269 277 294 303 298 293 301 298 304 311 305 293 288 282 281 287 279 274 280 268 255 248 239 231 244 237 245 256 257 254 242 235 228 235 239 232 229 211 224 226 217 206 193 191 213 210 221 215 204 193 209 212 215 220 235 237 223 232 233 230 227 235 229 216 218 217 209 210 204 190 188 181 159 163 165 167 175 173 178 178 167 187 198 197 200 194 190 194 203 196 203 203 185 181 202 212 203 194 191 184 188 191 176 172 168 159 156 150 152 135 136 150 154 163 176 178 164 171 168 152 143 163 141 135 136 147 156 157 152 158 166 178 193 197 209 210 209 203 192 191 186 182 176 195 194 183 173 166 162 166 165 167 165 168 172 165 165 172 162 162 178 178 169 183 175 179 193 195 189 187 179 180 178 193 182 189 181 169 146 153 168 173 164 162 153 155 162 158 158 159 166 175 173 178 186 191 188 184 188 181 169 166 184 189 193 188 189 190 194 201 210 207 201 196 186 187 187 178 184 176 170 173 187 182 180 184 184 183 181 179 179 171 166 167 177 181 173 179 168 158 158 149 124 113 114 145 156 150 135 122 113 114 119 119 117 107 103 99 116 118 113 104 96 98 94 93 114 123 120 118 102 105 111 117 124 119 120 121 126 125 116 110 111 101 98 97 98 97 92 86 73 70 63 71 78 73 38 51 84 98 101 102 100 110 91 87 89 86 77 70 73 84 91 94 104 94 95 103 104 105 98 99 98 99 93 94 103 95 95 101 92 82 85 93 99 95 93 88 86
253 198 207 218 192 190 192 198 211 204 181 183 180 181 193 248 342 434 442 459 444 453 460 454 455 459 458 432 416 426 447 430 421 443 438 423 417 430 455 475 490 377 267 273 265 244 261 256 399 582 572 561 575 560 546 532 552 571 582 583 468 352 315 281 292 305 296 281 265 248 236 231 233 240 245 253 286 286 265 252 272 260 267 259 255 260 303 306 302 284 271 255 248 276 364 305 285 347 299 273 266 251 262 275 270 299 262 240 334 333 256 250 259 248 264 250 232 223 237 222 222 230 241 239 225 221 213 216 223 223 233 217 221 231 233 245 234 235 226 246 237 243 248 260 261 268 279 295 315 335 349 410 410 436 488 565 643 610 615 687 653 650 606 566 592 642 578 651 717 797 880 999 917 827 853 797 791 665 596 564 516 528 550 601 558 534 497 568 645 602 676 625 632 656 699 690 603 537 543 534 527 551 599 622 629 715 701 662 791 859 810 790 812 771 722 687 645 622 619 618 635 645 655 636 678 670 643 630 610 609 609 613 607 622 642 702 659 630 592 577 586 584 605 620 627 601 602 620 664 732 760 764 814 931 1026 1021 1099 1032 1004 942 881 765 810 816 899 841 928 990 943 903 956 1066 938 905 838 789 782 729 699 647 618 648 603 582 646 658 631 614 639 660 705 766 694 680 657 633 629 655 596 598 645 697 663 633 562 523 520 506 509 462 487 481 468 433 449 424 437 454 475 493 519 538 548 563 545 532 509 453 468 508 512 513 519 516 529 519 506 480 436 402 352 340 333 322 325 321 312 314 316 324 320 308 297 286 278 293 263 254 257 270 274 249 248 252 265 266 273 289 304 317 305 320 326 332 341 323 327 323 304 275 270 275 280 281 301 311 310 306 287 287 286 304 310 335 332 317 315 319 312 308 306 303 309 311 304 292 280 279 288 284 261 253 270 287 293 298 300 295 299 301 294 284 299 298 281 273 290 294 307 296 287 294 301 302 298 291 289 290 293 287 280 273 273 266 265 258 245 235 226 239 254 247 251 251 247 246 244 249 248 235 227 233 241 240 234 222 204 183 185 202 201 215 208 192 202 203 215 220 235 234 224 219 229 223 219 231 229 227 226 214 206 201 195 180 179 169 167 182 172 152 166 182 165 171 165 186 184 196 184 190 201 209 212 213 207 199 191 199 205 212 204 199 205 188 180 177 179 159 151 151 154 139 130 136 148 158 154 167 179 172 152 163 164 140 144 146 134 143 157 159 156 161 167 171 167 169 179 181 189 202 207 200 199 196 189 183 180 173 182 177 170 163 165 162 161 162 161 165 169 167 168 163 162 160 174 166 171 170 175 180 186 175 185 191 172 167 184 186 178 174 167 159 147 156 173 169 160 149 159 156 161 160 162 171 178 180 184 184 183 185 184 175 180 173 162 177 190 195 199 196 199 195 199 198 207 206 195 189 185 176 176 178 167 176 164 172 184 179 169 173 172 177 187 186 178 173 167 174 183 179 173 180 174 164 153 128 119 115 129 151 152 142 122 114 110 113 105 115 126 114 116 121 131 126 123 114 102 95 84 83 102 108 112 117 100 100 100 116 124 112 109 113 115 116 118 108 106 103 101 100 103 101 89 78 69 64 54 54 59 51 37 62 84 82 73 85 95 101 92 80 83 72 71 81 83 88 94 96 90 86 90 93 104 105 98 90 95 102 89 90 99 96 88 91 88 78 79 93 92 86 81 82 80
194 193 196 196 194 193 199 201 205 195 182 181 183 191 280 384 442 444 434 447 426 445 458 449 451 455 454 449 437 441 455 430 435 462 461 437 426 453 482 493 467 316 267 259 244 252 255 305 520 593 575 569 575 572 567 571 582 602 591 414 313 314 295 272 304 291 283 276 248 240 233 234 245 245 254 278 293 276 255 284 269 267 264 254 253 291 309 304 301 282 264 249 253 297 344 288 282 328 271 273 268 250 262 275 283 320 266 245 341 285 255 241 268 245 254 239 226 229 231 225 218 224 223 233 224 234 223 220 215 225 225 217 223 222 222 236 228 226 259 273 239 239 241 250 252 255 261 268 305 328 327 359 407 435 482 504 538 546 639 608 557 593 565 543 633 601 568 613 641 664 773 966 871 719 705 690 722 642 563 515 527 564 562 551 530 501 521 579 580 713 759 753 819 788 659 620 621 576 595 560 547 646 667 710 703 809 837 713 779 772 753 732 731 731 679 657 656 679 703 724 751 733 744 696 737 696 674 647 649 637 622 645 686 726 746 687 660 610 642 635 632 578 584 597 601 655 652 620 645 718 870 926 982 982 892 921 1082 1042 1089 1135 912 832 938 856 951 1051 1028 1089 1034 1007 1037 1033 983 880 817 786 747 724 672 615 654 652 608 577 586 602 609 633 633 658 697 730 742 734 710 670 605 578 573 592 628 657 686 633 612 580 566 534 485 454 469 471 450 408 430 469 508 519 525 542 521 539 562 535 534 505 456 464 484 512 519 527 530 528 520 484 460 369 379 385 371 332 319 320 313 322 305 296 308 311 315 313 307 297 295 288 284 273 261 252 259 251 248 252 264 261 258 288 298 303 305 317 320 316 310 307 316 316 301 281 270 277 292 281 284 294 291 289 304 305 290 318 314 308 326 309 309 319 314 301 310 307 296 301 298 294 299 300 296 277 262 266 262 268 285 284 298 300 291 286 287 281 277 294 300 270 277 297 305 298 283 288 293 294 293 282 292 289 282 284 283 273 262 261 256 257 254 244 228 229 235 234 240 252 260 258 250 248 244 248 244 241 236 243 231 225 212 208 206 195 197 211 206 192 211 206 216 228 238 238 225 215 224 218 217 222 225 218 227 228 214 209 195 184 170 177 196 194 180 157 157 167 165 161 160 176 180 181 182 195 212 194 205 215 205 211 206 214 214 215 212 199 209 195 181 178 178 172 167 166 175 143 129 133 153 157 165 165 168 159 144 155 152 133 136 129 137 152 150 143 147 153 159 170 183 189 182 192 198 207 212 209 209 200 197 192 182 170 170 170 166 163 163 161 159 159 157 160 170 179 174 166 159 156 159 161 167 163 183 185 172 174 189 192 179 164 173 183 177 164 157 167 153 152 167 172 158 156 166 169 174 176 175 177 177 173 176 175 171 177 177 175 169 165 166 175 183 191 194 203 203 205 204 208 203 194 191 184 182 182 176 177 164 170 162 168 180 175 163 163 171 177 179 182 179 175 178 175 176 177 174 177 170 155 131 118 121 135 143 149 141 124 123 115 108 105 106 112 119 130 144 131 120 110 110 99 92 87 79 88 95 98 98 101 100 90 100 115 127 121 103 108 118 112 103 103 102 93 92 90 93 93 92 91 86 80 67 54 42 39 60 61 65 68 57 61 69 77 76 71 68 69 85 90 75 82 95 93 77 76 89 98 101 99 92 87 93 96 82 84 90 97 94 88 83 76 77 91 89 81 78 74 72
193 189 189 191 193 199 208 200 191 183 181 189 191 202 332 435 432 432 428 431 446 455 453 437 442 449 453 451 460 460 458 456 451 464 469 434 442 468 485 480 354 283 285 290 264 273 248 382 587 589 585 575 575 586 593 592 607 610 593 381 286 300 281 283 298 282 270 263 239 238 238 245 257 256 278 300 315 275 256 279 266 269 263 259 272 309 295 287 289 281 259 251 258 339 323 282 295 328 272 264 256 255 271 273 287 272 245 236 248 243 250 237 256 251 225 222 224 239 239 238 218 213 219 229 225 230 229 216 214 220 216 212 213 216 216 217 220 238 301 251 237 241 248 243 248 272 285 363 432 421 409 526 507 473 456 485 493 582 638 584 550 518 522 558 588 562 559 570 595 642 740 795 795 648 618 620 609 594 538 493 528 576 541 520 495 523 593 583 686 742 838 916 812 710 708 650 588 566 568 558 551 597 624 729 843 801 780 729 738 721 716 686 718 775 785 767 772 856 889 913 943 903 889 855 896 804 697 698 676 662 674 736 843 860 782 758 684 646 722 707 618 595 584 603 621 653 641 625 684 744 792 997 1135 997 872 808 878 887 1010 1133 1000 994 1076 945 965 1117 1115 1194 1206 1102 999 928 914 852 808 764 768 749 572 639 655 640 598 581 581 617 611 624 678 713 744 779 770 789 795 745 672 581 534 577 596 600 644 613 567 553 554 508 485 447 447 461 431 416 446 474 505 521 527 542 524 574 530 512 500 458 443 481 496 508 514 519 526 505 482 418 384 348 337 355 348 333 322 311 303 297 301 293 307 299 304 301 306 299 295 280 272 286 268 249 250 255 248 250 258 241 253 284 285 295 302 314 309 306 297 300 300 300 303 279 276 296 278 271 280 280 288 307 310 315 306 310 304 297 303 297 309 315 304 300 296 297 286 289 291 288 292 290 284 272 272 273 263 261 273 278 295 297 301 291 285 279 271 287 293 276 270 288 295 294 278 291 292 285 284 277 283 277 272 277 267 259 261 257 257 246 247 246 234 222 221 238 245 248 249 247 239 237 233 244 241 235 227 222 218 210 214 223 222 198 200 209 215 200 202 202 210 219 224 229 230 217 209 207 202 209 224 220 212 222 223 219 206 186 179 188 199 188 165 161 155 159 166 159 160 181 172 172 191 205 187 190 208 206 197 198 196 201 206 205 198 186 207 206 187 176 175 184 181 174 172 152 147 133 137 153 161 159 165 154 137 149 134 129 129 144 154 143 146 154 156 172 185 191 188 189 201 196 199 208 213 218 213 208 202 191 192 180 179 176 169 165 161 162 160 163 161 161 171 174 175 170 165 161 156 151 160 157 177 168 163 178 180 187 179 169 161 178 184 174 173 180 169 150 157 161 152 156 161 169 167 170 166 164 165 165 169 164 155 159 166 166 159 163 167 181 190 199 199 199 198 201 205 202 199 191 186 185 178 176 171 170 164 164 158 165 175 182 164 161 167 169 177 182 177 175 173 163 163 164 166 170 153 134 126 125 130 146 145 144 130 125 128 125 126 123 120 111 116 130 137 119 102 100 92 89 101 92 81 81 88 87 86 91 96 86 98 111 117 113 99 110 113 108 100 95 92 92 89 78 77 83 84 87 84 71 55 36 42 54 70 82 90 95 90 86 78 65 68 68 73 74 82 85 68 73 85 82 67 74 90 95 96 99 95 83 94 100 86 75 85 98 99 94 86 79 72 79 89 82 78 75 71
186 187 186 191 200 199 197 193 183 181 200 214 227 321 420 443 428 425 417 440 449 443 427 413 420 430 444 454 441 438 458 468 464 465 460 436 444 463 482 440 299 306 321 295 274 248 278 490 596 601 604 596 596 603 619 616 611 615 517 347 289 285 269 294 298 276 265 244 238 242 244 259 266 284 305 312 307 266 284 276 275 270 265 273 306 313 307 294 286 273 256 253 265 357 314 284 332 300 269 273 261 263 281 279 289 264 243 268 317 230 234 242 226 230 216 215 214 226 230 238 227 215 232 225 216 213 217 214 212 223 219 217 213 212 212 215 229 237 244 239 232 245 253 285 326 345 338 360 413 467 576 675 588 511 517 531 557 565 578 537 538 543 506 561 573 566 535 563 579 635 701 707 694 646 584 585 591 524 497 485 516 524 508 516 501 605 599 660 692 731 827 944 867 813 716 607 568 587 594 597 576 634 724 762 755 753 703 696 706 697 674 692 763 862 892 934 909 880 866 871 966 902 916 938 879 899 851 868 807 766 832 911 831 854 866 846 711 770 759 666 604 647 609 599 614 608 649 653 653 676 808 1007 1084 965 883 771 790 925 968 1011 897 1007 1083 1021 962 1020 1095 1123 1212 1032 903 827 819 752 781 742 695 594 564 628 600 595 584 612 604 597 575 604 698 741 714 776 721 668 637 617 580 564 533 535 532 552 580 614 559 530 558 516 476 442 429 422 401 442 459 497 506 515 502 501 519 526 513 492 451 432 459 488 511 513 519 504 507 472 428 392 345 331 321 329 329 326 320 310 303 292 287 293 296 300 290 291 298 293 290 281 271 258 256 255 248 262 244 220 232 228 243 271 282 278 297 315 314 307 299 290 288 289 297 272 286 288 267 279 285 282 291 302 300 307 315 289 283 285 292 301 304 301 300 293 285 284 294 286 286 284 284 279 281 285 287 289 282 268 266 289 287 291 297 306 298 287 273 264 262 259 260 279 286 289 272 287 285 281 270 271 268 265 268 260 253 246 244 239 238 238 236 235 229 224 217 227 242 234 241 248 239 224 232 230 234 235 234 234 227 209 201 209 218 203 193 193 206 208 192 194 203 214 217 228 233 230 222 214 201 199 215 215 205 203 220 217 197 193 205 198 189 170 190 189 173 154 152 151 155 173 161 176 204 194 175 203 219 203 190 185 192 192 195 197 191 179 196 205 189 193 192 182 185 184 170 163 164 163 140 136 147 153 157 141 132 134 124 120 135 143 140 150 163 171 177 190 192 201 206 196 205 210 209 201 198 205 207 204 205 201 194 187 186 179 173 170 166 168 165 173 166 162 159 159 166 169 166 164 164 160 153 170 178 164 163 166 174 189 187 177 156 165 177 182 180 179 167 154 148 154 172 168 172 179 172 167 168 153 156 168 155 151 163 162 161 159 168 181 185 187 191 186 192 194 193 193 196 202 196 187 184 179 175 176 179 173 157 153 154 157 164 167 157 159 169 175 171 170 168 160 154 147 151 156 160 165 161 157 151 148 149 156 150 142 129 122 123 126 135 134 135 122 105 114 116 106 99 108 110 109 100 104 90 83 80 76 71 82 86 85 96 101 110 103 90 106 103 103 110 105 103 103 94 90 86 75 72 78 80 63 43 31 43 61 82 90 93 93 95 95 92 87 82 75 70 74 77 75 62 69 75 71 67 81 87 88 81 89 86 78 88 94 87 73 79 88 93 88 86 82 73 73 80 82 78 73 71
183 187 188 190 200 198 194 184 181 194 196 225 374 442 438 430 419 410 418 443 432 414 405 415 426 444 440 434 424 427 446 456 450 461 451 454 468 478 487 375 300 324 368 309 260 242 331 564 597 602 534 428 427 476 594 616 602 573 370 275 280 273 273 300 291 270 252 241 241 248 256 258 282 320 333 325 290 276 294 278 279 269 274 287 319 327 304 291 288 266 259 260 281 362 305 312 395 349 278 279 259 276 269 278 285 257 244 311 410 258 249 256 236 240 222 219 217 220 218 231 232 225 235 220 212 209 207 211 218 231 225 226 225 220 217 224 235 237 235 228 233 241 265 362 557 581 454 446 453 510 725 721 634 625 649 659 623 584 533 516 546 536 509 486 519 536 528 550 630 629 618 640 598 606 566 555 555 496 470 490 481 472 488 495 555 566 572 590 580 620 722 841 770 702 668 687 625 609 573 583 589 593 704 691 675 724 666 660 710 668 647 726 782 879 986 883 839 821 824 849 865 810 811 812 904 968 983 953 955 976 1053 963 998 982 1033 978 827 705 670 668 674 652 608 604 620 678 680 679 700 719 786 945 965 921 867 786 744 829 874 859 769 886 828 864 964 966 996 1017 1006 913 857 771 668 608 600 619 605 551 568 592 585 591 643 675 635 628 632 579 642 680 701 782 821 781 691 665 631 584 566 547 545 571 577 570 542 525 516 486 450 421 413 390 420 422 451 483 498 497 486 508 519 513 488 455 409 461 492 492 494 481 475 483 456 400 401 350 338 325 322 315 322 315 305 311 311 311 300 280 291 304 292 278 280 279 286 273 265 269 256 248 254 268 246 229 219 226 267 282 271 289 303 307 310 306 293 297 287 278 283 269 276 263 274 286 299 304 305 305 295 287 293 280 282 299 296 294 281 279 296 305 302 285 287 292 282 275 284 271 282 289 296 298 290 281 262 278 283 277 293 300 297 286 281 285 276 282 261 269 272 270 261 275 281 273 263 261 257 257 252 251 252 254 249 237 247 242 229 229 227 229 222 215 223 230 232 239 249 240 228 227 219 220 219 221 219 220 218 204 204 211 207 193 183 198 190 186 198 205 217 226 226 230 232 224 214 199 197 207 201 198 212 206 203 210 208 193 182 185 204 200 188 173 160 152 160 160 176 183 195 176 178 198 209 196 187 182 184 188 180 191 188 175 172 194 191 189 182 169 178 175 160 170 159 163 139 128 142 156 135 129 130 125 121 139 149 152 145 148 169 179 178 184 196 202 204 210 209 203 199 199 182 192 187 198 193 200 192 185 185 189 181 173 175 171 165 169 170 170 165 157 153 154 153 153 157 155 155 171 164 166 153 159 179 179 171 170 149 159 169 180 178 175 176 164 146 154 170 184 180 184 175 163 155 149 151 150 153 159 168 174 177 173 177 180 188 186 180 180 180 179 183 186 194 203 200 193 193 190 184 187 184 168 159 158 144 157 158 145 151 164 171 167 159 156 157 142 139 140 139 147 163 172 175 177 176 170 174 171 158 143 145 143 145 128 120 115 116 122 110 103 101 101 113 121 128 123 117 107 94 89 94 85 82 74 74 81 88 89 98 101 87 94 92 104 108 99 95 98 95 96 94 91 67 69 78 74 45 32 49 72 82 84 85 84 87 93 80 67 56 51 53 56 62 58 54 56 60 61 65 66 72 72 79 87 85 80 76 83 84 74 77 89 82 85 85 81 75 68 76 79 76 74 72
181 184 185 196 194 189 184 181 187 212 199 235 406 430 424 411 413 430 442 420 402 396 402 407 423 421 412 417 424 441 452 441 448 451 455 465 469 480 448 317 321 373 334 287 256 237 325 533 601 540 384 295 308 418 598 600 605 575 358 289 270 264 269 277 267 254 241 244 251 256 285 295 312 331 339 317 278 297 281 275 276 278 277 308 310 313 299 286 275 262 263 259 307 347 310 362 338 321 285 282 264 291 273 275 292 252 237 310 418 278 256 267 243 234 226 228 224 224 220 217 218 221 223 225 206 219 229 227 226 238 224 224 221 221 227 233 238 233 225 239 249 266 306 426 671 736 567 705 664 704 758 784 775 741 674 624 580 538 518 499 521 498 507 491 515 515 525 543 689 621 559 577 564 578 529 535 507 467 455 466 468 494 490 522 528 533 550 561 603 638 651 725 726 711 730 652 600 589 615 619 590 609 658 673 643 682 670 621 690 642 653 840 797 843 960 881 840 789 814 764 872 823 761 852 896 898 902 883 936 952 1007 969 1030 1137 1205 1054 825 762 768 759 705 669 626 616 637 653 726 790 744 821 884 953 886 818 818 803 708 791 820 725 707 709 819 960 880 864 941 963 807 742 780 922 744 630 549 554 564 534 590 575 570 630 716 732 707 671 623 580 641 679 776 869 872 853 772 692 708 614 600 561 521 517 524 550 527 513 494 483 491 464 458 392 441 453 457 479 483 481 494 506 507 493 442 424 462 459 493 462 446 432 454 464 449 401 353 346 333 322 311 305 312 303 301 298 305 299 299 287 285 301 297 289 277 261 276 270 259 255 251 252 264 269 249 233 227 263 286 273 259 285 304 300 294 298 294 280 278 261 262 255 263 277 278 280 295 299 294 294 289 274 271 279 293 300 286 281 275 287 285 296 306 296 285 280 279 281 272 272 281 279 294 300 293 279 268 262 269 277 286 284 289 287 295 293 289 285 267 253 249 257 270 279 288 279 275 275 277 267 261 268 264 254 250 251 245 232 229 240 234 231 244 230 228 219 222 236 244 240 240 240 233 226 212 208 203 206 206 212 209 201 190 192 195 189 186 203 187 202 215 220 225 220 228 225 218 215 197 189 197 199 193 197 211 214 207 202 203 204 186 185 188 182 164 154 150 170 179 165 165 169 203 205 210 201 194 179 166 173 166 182 185 182 162 172 181 188 169 166 158 162 146 163 158 154 144 126 152 140 122 124 121 126 139 135 141 143 149 154 159 159 164 169 179 189 195 206 205 196 184 191 196 186 177 188 184 196 188 184 178 182 182 188 190 180 171 178 174 169 163 165 164 164 164 160 164 159 159 148 151 152 147 170 173 176 168 159 147 163 175 182 176 170 165 161 144 154 176 174 183 178 173 156 147 159 170 166 164 174 172 166 166 170 176 177 180 172 169 173 181 185 187 194 194 201 206 200 193 186 182 177 178 178 178 163 155 146 141 142 162 166 162 160 150 147 139 131 131 141 158 169 178 191 188 186 185 180 175 165 152 157 162 156 147 141 127 125 128 130 123 117 117 119 126 133 129 116 122 118 102 105 104 97 96 87 90 78 72 78 87 93 82 85 93 100 97 99 87 84 86 89 86 86 71 55 75 80 54 31 40 65 73 79 80 76 73 63 51 44 51 56 51 48 51 52 62 74 79 79 84 82 81 84 91 90 90 90 73 73 75 71 70 76 85 89 83 79 80 71 68 73 74 74 72
